# .PCD v0.7 - Point Cloud Data file format
VERSION 0.7
FIELDS x y z
SIZE 4 4 4
TYPE F F F
COUNT 1 1 1
WIDTH 1196
HEIGHT 1
VIEWPOINT 0 0 0 1 0 0 0
POINTS 1196
DATA ascii
11.712757 12.549927 -1.735119
11.838688 12.602371 -1.738102
11.767189 12.587021 -1.735284
11.851219 12.545227 -1.750095
11.807743 13.008102 -1.957159
12.163028 13.004684 -1.941293
11.671215 12.734177 -1.738876
11.578903 13.098892 -1.7409019
11.665149 13.210678 -1.806811
11.630199 13.186203 -1.804938
11.614738 13.057892 -1.732721
11.631076 12.98288 -1.820107
11.679924 13.119263 -1.746768
11.686386 13.073318 -1.7355731
11.685241 12.959244 -1.822498
11.614593 13.264618 -1.742962
11.683349 13.279556 -1.746073
11.679245 13.334747 -1.739946
11.628009 13.481216 -1.781219
11.65224 13.447601 -1.813727
11.495124 13.362564 -1.843206
11.532455 13.429306 -1.777823
11.668846 13.514633 -1.7817121
11.607528 13.31897 -1.736949
11.555874 13.23761 -1.74145
11.54805 13.287781 -1.735844
11.556026 13.363037 -1.810642
11.573448 13.462387 -1.7783149
11.54311 13.545746 -1.843644
11.559555 13.623581 -1.735901
11.538929 13.679565 -1.7370681
11.491054 13.77739 -1.737883
11.519825 13.567139 -1.737835
11.680973 13.715286 -1.742605
11.481517 13.8125 -1.7393889
11.646038 13.620834 -1.741154
11.648807 13.794479 -1.7455879
11.563762 13.79361 -1.740805
11.617778 13.548325 -1.832679
11.613632 13.692566 -1.740398
11.481357 13.644867 -1.736362
11.415874 13.833939 -1.743036
11.905285 12.624283 -1.740162
11.986736 12.627777 -1.744496
11.944236 12.680908 -1.833765
11.974689 12.760803 -1.751655
11.980751 12.875824 -1.7456059
11.84378 12.71701 -1.747178
11.859565 12.815277 -1.7432899
11.911735 12.735657 -1.749804
11.936283 12.82515 -1.746904
11.819839 12.685425 -1.852586
11.809745 12.623688 -1.769585
11.728344 12.76828 -1.739464
11.722671 12.661804 -1.744257
11.773372 12.701767 -1.7441649
11.787834 12.799484 -1.740431
11.769893 12.87529 -1.776547
11.937393 13.095551 -1.857563
11.778122 13.01088 -1.793583
11.758064 13.08905 -1.738425
11.953319 13.163025 -1.743965
11.922554 13.042496 -1.856685
11.925903 12.941254 -1.783918
11.794422 12.945847 -1.905198
11.731868 12.971603 -1.8338341
11.817405 13.120712 -1.73939
11.799057 13.170868 -1.750309
11.71426 13.165482 -1.853312
11.860649 13.216232 -1.829391
11.886604 13.140167 -1.741866
11.873066 13.083481 -1.796555
11.865711 12.927673 -1.780022
11.970844 13.027237 -1.818288
11.966819 12.975143 -1.784459
12.221069 12.870148 -1.758294
12.230526 12.747391 -1.749336
12.189544 12.625778 -1.789801
12.038452 12.668976 -1.744284
12.025039 12.801651 -1.751567
12.007949 12.843231 -1.849754
12.136768 12.894012 -1.753217
12.155738 12.847031 -1.75605
12.179084 12.705521 -1.749545
12.052478 12.892502 -1.748466
12.045379 12.747238 -1.861814
12.302074 12.764847 -1.752157
12.244533 12.646088 -1.792768
12.278701 12.902695 -1.759374
12.115009 12.679352 -1.747861
12.100498 12.81189 -1.75536
12.247936 13.223541 -1.756521
12.264599 13.036758 -1.760332
12.252639 12.962891 -1.754784
12.056659 13.034836 -1.786981
12.068145 13.135132 -1.820374
12.18845 12.93605 -1.753055
12.148975 13.092438 -1.789984
12.099159 12.98233 -1.803309
12.139949 13.184921 -1.824833
12.030044 13.173782 -1.747575
12.011806 13.074005 -1.819005
12.19635 13.181 -1.756683
12.30154 13.008392 -1.754246
12.195022 13.121521 -1.791487
12.108429 13.057877 -1.789441
11.903572 13.499908 -1.849683
11.876804 13.43248 -1.847875
11.9584 13.241928 -1.752185
11.956394 13.413406 -1.75043
11.983989 13.510025 -1.817831
11.884693 13.332336 -1.7546099
11.792495 13.49231 -1.815599
12.00066 13.282593 -1.792703
11.742942 13.279907 -1.809638
11.746048 13.357071 -1.742187
11.746063 13.449448 -1.814011
11.811561 13.438309 -1.908307
11.82526 13.364136 -1.74632
11.814132 13.300964 -1.842489
11.908798 13.296844 -1.828787
11.892093 13.387085 -1.748564
11.713997 13.373276 -1.748603
11.720588 13.536774 -1.784135
11.720249 13.634064 -1.744516
11.964531 13.755005 -1.750036
11.936924 13.818695 -1.758206
11.765575 13.776459 -1.842785
11.779548 13.66626 -1.745611
11.758487 13.573395 -1.784146
11.820594 13.755341 -1.747772
11.923061 13.700485 -1.751585
11.810127 13.595947 -1.786569
11.738357 13.750717 -1.743315
11.711738 13.823853 -1.747025
11.910404 13.543152 -1.848636
11.910522 13.644547 -1.790935
11.88039 13.788223 -1.748859
11.85617 13.62439 -1.788029
11.858806 13.67392 -1.749732
11.885181 13.721191 -1.7543859
12.118602 13.530807 -1.7514991
12.11618 13.450165 -1.760285
12.21577 13.518341 -1.758285
12.209983 13.343643 -1.759589
12.095886 13.337616 -1.796152
12.103439 13.269379 -1.758814
12.015796 13.332413 -1.86552
12.161518 13.494507 -1.759809
12.13919 13.369629 -1.797157
12.296829 13.269333 -1.755981
12.064026 13.237335 -1.744769
12.081859 13.370529 -1.905087
12.303611 13.491455 -1.8050359
12.074775 13.479172 -1.752654
12.259201 13.38562 -1.759393
12.023174 13.43692 -1.752676
12.170894 13.289688 -1.761348
12.086986 13.711441 -1.760588
12.014896 13.836197 -1.753284
12.069183 13.615005 -1.817781
12.29438 13.810287 -1.8291039
12.019191 13.685623 -1.7967499
12.254272 13.576508 -1.756376
12.168533 13.626923 -1.83621
12.255123 13.632904 -1.761647
12.264885 13.679352 -1.857175
12.176944 13.766022 -1.8178869
12.171993 13.818542 -1.757874
12.203285 13.593658 -1.7614059
12.193378 13.678696 -1.8352979
12.134163 13.695251 -1.818768
12.136032 13.754059 -1.833894
12.105392 13.793991 -1.755638
12.241573 13.796448 -1.823501
11.718963 14.993027 -1.971619
11.474975 14.824982 -1.9347709
11.338588 14.301498 -1.830501
11.34066 14.39061 -1.742236
11.390133 14.208878 -1.778827
11.386882 14.441727 -1.741022
11.387161 14.251785 -1.742188
11.340904 14.184219 -1.776891
11.424747 13.888519 -1.742682
11.393692 14.021637 -1.779644
11.399727 14.069824 -1.806929
11.684486 13.884567 -1.745388
11.680835 13.971558 -1.7521141
11.659683 14.051498 -1.7427191
11.641048 14.094681 -1.822639
11.523929 14.147537 -1.750815
11.564235 13.915695 -1.749202
11.49979 14.062408 -1.784971
11.514858 14.014297 -1.737514
11.552795 13.975281 -1.7793961
11.501613 13.953369 -1.776987
11.583591 14.03746 -1.739568
11.618488 13.85817 -1.743632
11.601165 14.000275 -1.7813179
11.49826 13.897339 -1.746543
11.450412 13.931671 -1.774578
11.441265 13.997742 -1.734731
11.586441 14.124069 -1.786911
11.609222 14.438507 -1.753173
11.571163 14.334183 -1.74711
11.437706 14.292419 -1.742153
11.413677 14.367233 -1.74678
11.472294 14.442871 -1.745723
11.479713 14.389679 -1.749038
11.457374 14.195297 -1.743515
11.631553 14.363174 -1.748623
11.589203 14.232742 -1.748823
11.635189 14.149475 -1.7888499
11.660408 14.412918 -1.837671
11.657695 14.248871 -1.751878
11.649154 14.198639 -1.754645
11.414241 14.149353 -1.744468
11.530662 14.430954 -1.748994
11.536033 14.198593 -1.748172
11.520755 14.293076 -1.747143
11.235653 14.67189 -1.805284
11.256576 14.712814 -1.826333
11.318523 14.739532 -1.808916
11.31998 14.672165 -1.834741
11.28759 14.48024 -1.748644
11.284706 14.608353 -1.742514
11.283291 14.539536 -1.778409
11.370395 14.692947 -1.751547
11.362911 14.618759 -1.7461179
11.374847 14.775101 -1.812436
11.387073 14.904922 -1.752807
11.373325 15.028381 -1.753664
11.284423 14.919739 -1.798618
11.204525 15.062531 -1.748237
11.189022 14.972137 -1.748016
11.234131 14.87677 -1.7463011
11.265476 14.982224 -1.751734
11.321987 15.017456 -1.752403
11.305679 14.896957 -1.748823
11.31924 14.828232 -1.741819
11.250671 14.805084 -1.739699
11.183544 14.955322 -1.747612
11.653167 14.524979 -1.754715
11.578628 14.722534 -1.792779
11.465522 14.588303 -1.811452
11.633491 14.582977 -1.7608269
11.626503 14.726044 -1.753173
11.50658 14.526688 -1.757684
11.691921 14.495377 -1.7542911
11.433876 14.714935 -1.753924
11.433788 14.638901 -1.7486171
11.502208 14.662491 -1.750749
11.489624 14.746323 -1.7550991
11.583027 14.670792 -1.7547261
11.543007 14.463181 -1.748208
11.563812 14.562454 -1.758312
11.429416 14.516067 -1.754041
11.660278 14.765564 -1.789829
11.674617 14.820709 -1.7614371
11.66373 14.897324 -1.9086469
11.631004 15.042862 -1.756713
11.634208 14.9823 -1.7484111
11.397648 14.839142 -1.745409
11.402912 14.951233 -1.754898
11.430576 15.06041 -1.7547719
11.449352 14.995285 -1.7544661
11.448894 14.884735 -1.744965
11.606075 14.803711 -1.758253
11.524833 14.899384 -1.748191
11.503021 14.981201 -1.7538429
11.547882 14.774887 -1.756675
11.54219 14.827011 -1.831966
11.583343 14.936096 -1.7488509
11.567043 15.011902 -1.755277
11.855835 14.136108 -1.7474329
11.857906 14.054108 -1.756889
11.87939 13.981155 -1.760437
11.844894 13.874069 -1.751019
11.804569 14.089981 -1.74793
11.826309 13.925751 -1.750376
11.919681 13.918854 -1.756183
11.929088 14.022903 -1.760419
11.77446 14.121872 -1.7855999
11.741623 13.996796 -1.7539721
11.777084 13.850372 -1.748835
11.91856 14.080109 -1.75875
11.978637 14.064819 -1.760403
11.965637 13.971252 -1.755003
11.985477 13.916122 -1.756134
11.940242 13.863983 -1.757295
11.728412 14.075272 -1.744776
11.73648 13.950378 -1.753844
11.733452 14.013733 -1.838032
11.971244 14.294952 -1.787913
11.974582 14.415543 -1.75875
11.874435 14.382507 -1.755296
11.70663 14.230698 -1.7557811
11.70298 14.292557 -1.7513289
11.712234 14.36792 -1.75323
11.886284 14.319138 -1.760368
11.858047 14.240082 -1.840914
11.998771 14.340958 -1.786429
11.919204 14.42691 -1.754752
11.933117 14.364243 -1.759948
11.914436 14.173096 -1.748034
11.970413 14.213394 -1.7482719
11.779342 14.244659 -1.759259
11.774028 14.306198 -1.754787
11.829025 14.286377 -1.759228
11.824291 14.344254 -1.755041
11.762375 14.409698 -1.753201
11.814937 14.448608 -1.7535599
12.212883 13.873779 -1.75633
12.220344 13.927414 -1.759306
12.287075 13.889709 -1.759701
12.278579 14.002075 -1.765918
12.150428 13.909103 -1.756343
12.142284 13.998825 -1.749072
12.044849 14.057617 -1.749354
12.26305 14.064331 -1.751639
12.277324 14.144196 -1.79243
12.203994 14.029938 -1.750542
12.194992 14.089371 -1.755968
12.109001 13.857819 -1.7576621
12.115951 13.959656 -1.821872
12.085609 13.961838 -1.748353
12.056739 13.891312 -1.751754
12.025448 13.974548 -1.754231
12.119903 14.073334 -1.752661
12.017696 14.119019 -1.758828
12.008258 14.168793 -1.757664
12.134334 14.216431 -1.762193
12.15752 14.169937 -1.751771
12.089595 14.2854 -1.749848
12.13137 14.359772 -1.796604
12.238292 14.434402 -1.719545
12.224926 14.357162 -1.772215
12.213283 14.222885 -1.766863
12.221294 14.163574 -1.752213
12.283024 14.454041 -1.698292
12.276344 14.292419 -1.710464
12.038898 14.23851 -1.750337
12.049175 14.365204 -1.7888401
12.175293 14.453506 -1.807839
12.175796 14.289597 -1.754473
11.795662 14.584473 -1.753729
11.914512 14.533051 -1.753508
11.911522 14.584824 -1.7910171
11.866279 14.723145 -1.764116
11.853618 14.621582 -1.754374
11.901306 14.671204 -1.7535419
11.760204 14.64032 -1.763976
11.78157 14.539764 -1.756124
11.842262 14.569916 -1.757623
11.961177 14.474442 -1.753808
11.971862 14.566483 -1.754643
11.976844 14.687302 -1.756777
11.699817 14.744247 -1.756047
11.86737 14.487701 -1.75392
11.717189 14.551773 -1.756544
11.703182 14.603806 -1.763344
11.809501 14.686234 -1.7634799
11.824318 14.780853 -1.835031
11.777679 14.894562 -1.762591
11.745372 14.954636 -1.756779
11.768325 15.035248 -1.752308
11.80859 14.827835 -1.756268
11.83036 14.930298 -1.76337
11.806553 14.990112 -1.8477809
11.939747 14.884644 -1.759815
11.72229 14.862045 -1.761411
11.850074 15.058517 -1.763284
11.922718 15.06485 -1.759145
11.892501 14.993118 -1.762512
11.928577 14.912796 -1.8054971
11.897312 14.790741 -1.760985
11.750492 14.790573 -1.755603
11.86988 14.819229 -1.838575
11.99274 14.972137 -1.840607
11.861492 14.871445 -1.756197
12.128696 14.6418 -1.770154
12.034332 14.64975 -1.763661
12.036487 14.555771 -1.840096
12.13684 14.547455 -1.807678
12.111866 14.45549 -1.764547
12.180324 14.503784 -1.757404
12.075454 14.676285 -1.7633359
12.297424 14.74324 -1.648926
12.303913 14.648026 -1.885271
12.060413 14.564026 -1.760417
12.175899 14.613007 -1.745209
12.047931 14.471558 -1.759671
12.146118 14.723602 -1.7322479
12.188701 14.558502 -1.75138
12.195343 14.735245 -1.669667
12.236942 14.622665 -1.653721
12.267852 14.494644 -1.6647919
12.283523 14.572311 -1.665659
12.259231 14.691727 -1.650192
12.245521 14.769272 -1.659505
12.194954 14.92366 -1.656426
12.180626 14.845703 -1.660967
12.166168 14.781982 -1.694592
12.216999 14.992798 -1.653021
12.073944 14.879852 -1.761526
12.07476 14.789734 -1.771691
12.019203 15.057312 -1.765318
12.259273 14.934662 -1.658963
12.28252 14.996368 -1.656119
12.020618 14.895142 -1.7638021
12.010418 14.761154 -1.769918
12.093898 14.830444 -1.76739
12.124591 14.965881 -1.672527
12.252304 15.047363 -1.651507
11.046554 15.554245 -2.027456
11.03984 15.668945 -1.753112
11.079872 15.732254 -1.7578501
11.073158 15.785278 -1.760234
11.652946 15.652939 -2.01355
11.47879 15.4198 -1.9990309
11.455982 15.635864 -1.925415
11.367702 15.978424 -2.0098529
11.523128 15.942062 -1.943621
11.348114 15.240311 -1.757498
11.343124 15.109879 -1.752315
11.323436 15.128113 -1.7555619
11.291496 15.204697 -1.7568099
11.307815 15.293564 -1.842333
11.281173 15.07663 -1.751367
11.203777 15.363571 -1.754132
11.22578 15.273636 -1.8138
11.224815 15.181702 -1.7546
11.295906 15.352737 -1.814977
11.144291 15.331299 -1.753068
11.148193 15.171463 -1.750868
11.288891 15.631149 -1.75753
11.303165 15.5121 -1.76276
11.319976 15.431885 -1.755886
11.183391 15.446457 -1.760545
11.184887 15.55481 -1.7569129
11.162994 15.623276 -1.847917
11.273483 15.670319 -1.835983
11.281967 15.602905 -1.808506
11.278194 15.377487 -1.757471
11.238331 15.485367 -1.760897
11.231849 15.598999 -1.756435
11.12006 15.532288 -1.754643
11.12091 15.417114 -1.759064
11.34581 15.394196 -1.817263
11.37371 15.487717 -1.794119
11.362926 15.545273 -1.76387
11.461807 15.183334 -1.75349
11.586322 15.369705 -1.762171
11.466106 15.306076 -1.7596411
11.414863 15.130859 -1.754721
11.402107 15.279236 -1.757807
11.422622 15.338943 -1.808741
11.471279 15.358643 -1.812086
11.598591 15.342239 -1.8622
11.621692 15.27887 -1.762377
11.628555 15.166244 -1.75958
11.692024 15.297058 -1.765376
11.577541 15.123734 -1.759667
11.666839 15.333755 -1.842456
11.574505 15.233643 -1.762875
11.540252 15.320923 -1.7629991
11.67247 15.127808 -1.7586811
11.498508 15.115189 -1.75556
11.514358 15.203827 -1.761433
11.509624 15.258224 -1.867613
11.461166 15.470413 -1.761435
11.674537 15.555115 -1.816222
11.650173 15.397324 -1.76401
11.679004 15.461136 -1.7964849
11.399402 15.440216 -1.759986
11.497429 15.593918 -1.768358
11.629341 15.433594 -1.7945811
11.499954 15.528412 -1.759477
11.535434 15.427048 -1.81273
11.554458 15.630905 -1.769097
11.584503 15.531555 -1.764339
11.426658 15.511642 -1.796471
11.430191 15.569443 -1.766113
11.635811 15.574677 -1.7642781
11.249584 15.729935 -1.7606061
11.244072 15.837677 -1.760007
11.254734 15.892487 -1.8212481
11.109749 15.688965 -1.755609
11.12455 15.779449 -1.756999
11.330421 15.681763 -1.7562701
11.358184 15.902939 -1.762236
11.356548 15.812103 -1.760727
11.177169 15.712402 -1.757731
11.186885 15.805374 -1.758894
11.32856 15.725632 -1.8386821
11.291797 15.784805 -1.758975
11.30888 15.861084 -1.762297
11.316757 15.915131 -1.76429
11.125744 15.862595 -1.790959
11.218479 15.924179 -1.793203
11.640827 15.893616 -1.771507
11.40789 15.690079 -1.760509
11.418708 15.842743 -1.762105
11.557865 15.713837 -1.768204
11.543476 15.776916 -1.863326
11.49612 15.855286 -1.765738
11.566692 15.851074 -1.816377
11.593452 15.689468 -1.767198
11.425487 15.923828 -1.7649209
11.614666 15.747269 -1.7693059
11.665607 15.708572 -1.770203
11.491523 15.792007 -1.81358
11.459518 15.728973 -1.7608221
11.633201 15.856918 -1.823015
11.550529 15.89563 -1.765993
11.479774 15.960068 -1.765648
11.565323 15.960495 -1.7710789
11.969776 15.354919 -1.730708
11.931987 15.13559 -1.871805
11.992435 15.24556 -1.762966
11.868366 15.190704 -1.759918
11.98376 15.287949 -1.737687
11.976772 15.194305 -1.772868
11.971565 15.104889 -1.812258
11.731235 15.205826 -1.762681
11.756199 15.108612 -1.759225
11.745594 15.233582 -1.761699
11.772781 15.303497 -1.7699291
11.903839 15.25354 -1.769924
11.888942 15.335754 -1.8485759
11.992637 15.15947 -1.777498
11.699917 15.067886 -1.75888
11.835365 15.33136 -1.7717659
11.801124 15.224243 -1.765754
11.802219 15.161865 -1.75811
11.961002 15.650055 -1.665257
11.894657 15.545746 -1.765687
11.953739 15.571198 -1.670579
11.968052 15.469192 -1.679103
11.895961 15.63858 -1.737246
11.795845 15.432144 -1.7703561
11.734275 15.483322 -1.799333
11.797504 15.591858 -1.772873
12.004097 15.519241 -1.6577671
11.991066 15.379791 -1.699957
11.762527 15.54332 -1.8267159
11.750755 15.395004 -1.849324
11.845718 15.65567 -1.780852
11.886135 15.578659 -1.762727
11.845623 15.529648 -1.826004
11.726856 15.410019 -1.767753
11.888199 15.427429 -1.776386
11.952282 15.424072 -1.723183
11.735096 15.668427 -1.8091919
11.72821 15.569412 -1.770279
12.070873 15.146011 -1.6735179
12.07547 15.268234 -1.654844
12.049659 15.362686 -1.6571161
12.172622 15.182938 -1.678117
12.139953 15.117477 -1.680701
12.231083 15.079498 -1.751426
12.308654 15.335068 -1.675745
12.29282 15.096207 -1.650751
12.228782 15.171677 -1.693918
12.171116 15.289932 -1.6528029
12.112678 15.073471 -1.664192
12.263508 15.28421 -1.676533
12.220802 15.230515 -1.677682
12.208965 15.341705 -1.651655
12.036987 15.333343 -1.662572
12.039608 15.077133 -1.751843
12.095524 15.340607 -1.651088
12.141166 15.229492 -1.655086
12.110954 15.169113 -1.65737
12.092655 15.219803 -1.845309
12.306003 15.422501 -1.652386
12.153999 15.533859 -1.651857
12.123333 15.404175 -1.6484571
12.101501 15.496277 -1.65113
12.098926 15.555603 -1.651039
12.134166 15.648956 -1.692053
12.303959 15.486969 -1.760092
12.02623 15.59256 -1.654024
12.199714 15.637375 -1.651692
12.210781 15.496567 -1.647692
12.258056 15.6698 -1.653123
12.251514 15.545868 -1.646937
12.252082 15.387802 -1.651264
12.169861 15.447388 -1.6484489
12.064041 15.648148 -1.6524709
12.303032 15.58374 -1.647682
12.088295 15.590363 -1.692325
12.138611 15.608139 -1.649894
12.06768 15.438293 -1.653006
11.770137 15.767044 -1.777795
11.773994 15.937546 -1.755718
12.004478 15.949905 -1.657078
11.871448 15.832367 -1.669192
11.869365 15.932159 -1.6621079
11.99839 15.708527 -1.666051
11.732616 15.73407 -1.772455
11.712063 15.853088 -1.831859
11.723533 15.901123 -1.775896
11.708534 15.952667 -1.8159519
11.920063 15.93248 -1.664
11.907364 15.693695 -1.681078
11.9762 15.720276 -1.661136
11.955009 15.770935 -1.683533
11.944828 15.832932 -1.661337
11.973407 15.892838 -1.659014
11.83419 15.902771 -1.7104959
11.832187 15.706238 -1.776085
11.832378 15.777496 -1.75216
11.811721 15.994827 -1.700335
11.94379 15.998459 -1.660918
12.058075 15.715973 -1.697051
12.041923 15.823776 -1.6580991
12.147045 15.750793 -1.650467
12.15596 15.816116 -1.713685
12.043426 15.879135 -1.681193
12.013347 15.767715 -1.660217
12.271328 15.729492 -1.698809
12.276626 15.784195 -1.7948641
12.140594 15.893845 -1.659865
12.140304 15.97821 -1.653752
12.243503 15.907349 -1.677042
12.197704 15.792053 -1.650745
12.127212 15.936935 -1.7627929
12.106983 15.697937 -1.651651
12.13739 15.780228 -1.6994931
12.098323 15.851654 -1.659981
12.261326 16.088562 -1.787268
12.104564 16.01767 -1.6753401
12.193771 16.038879 -1.764946
12.290966 15.993256 -1.715941
12.043575 15.998428 -1.656302
12.527073 12.781433 -1.949398
12.31916 13.144516 -1.961177
12.546001 13.096252 -1.911374
12.447841 12.836105 -1.764932
12.611026 12.914474 -1.7590801
12.573032 12.856094 -1.761175
12.588192 12.755173 -1.875927
12.335518 12.828598 -1.749301
12.415359 12.879898 -1.760553
12.399597 12.794235 -1.793702
12.409462 12.752029 -1.827395
12.416298 12.703156 -1.832453
12.606632 12.69693 -1.888757
12.511711 12.825211 -1.759866
12.496811 12.882538 -1.765779
12.358917 12.759094 -1.79311
12.344474 12.865662 -1.756937
12.457988 12.785431 -1.759693
12.340576 13.069321 -1.856732
12.383438 13.014297 -1.7586221
12.593601 13.116425 -1.751039
12.380066 13.135376 -1.86207
12.460098 13.130661 -1.75453
12.404247 13.175064 -1.865451
12.450065 13.038895 -1.760731
12.331131 12.941544 -1.75968
12.39637 13.077484 -1.765909
12.396312 12.965439 -1.7619261
12.461483 12.989609 -1.764173
12.526622 13.014038 -1.766422
12.482666 12.928833 -1.856173
12.540237 13.206818 -1.805303
12.78125 12.839767 -1.6549489
12.782619 12.744293 -1.661809
12.768795 12.694778 -1.689258
12.690174 12.719971 -1.8108701
12.729271 12.786499 -1.700509
12.690014 12.845489 -1.740564
12.72755 12.892654 -1.672964
12.674793 12.788788 -1.787477
12.870395 12.743713 -1.6478961
12.85284 12.900513 -1.6759011
12.858139 12.95578 -1.660907
12.684726 12.946732 -1.68689
12.794902 13.212875 -1.654156
12.793682 13.128525 -1.660151
12.83366 13.060944 -1.642688
12.817451 12.986282 -1.6469001
12.870117 13.02858 -1.656516
12.625892 12.978134 -1.768512
12.697826 12.961411 -1.675193
12.699981 13.017899 -1.662366
12.782055 12.932144 -1.648468
12.769962 13.067001 -1.662959
12.763931 13.181274 -1.661001
12.676979 13.063873 -1.665985
12.873134 13.201431 -1.635402
12.691127 13.214493 -1.647988
12.646007 13.139374 -1.680958
12.65784 13.188217 -1.667743
12.69046 13.122177 -1.6544189
12.381324 13.311172 -1.7918169
12.463623 13.44664 -1.7673939
12.316066 13.418716 -1.760368
12.455375 13.392487 -1.756258
12.46978 13.300018 -1.800516
12.554977 13.508209 -1.664129
12.581802 13.433105 -1.6719919
12.445385 13.241364 -1.871383
12.376091 13.38266 -1.752266
12.494892 13.531357 -1.737074
12.526542 13.420486 -1.728976
12.370239 13.455048 -1.760955
12.332737 13.330521 -1.753557
12.537967 13.3535 -1.748443
12.526233 13.259552 -1.791425
12.594791 13.752335 -1.902958
12.387996 13.691956 -1.8081729
12.379573 13.635513 -1.759745
12.34663 13.571777 -1.765976
12.345913 13.836441 -1.822273
12.611694 13.839722 -1.647355
12.530113 13.650665 -1.655393
12.525257 13.748825 -1.648162
12.563022 13.582977 -1.6591949
12.39574 13.805283 -1.770197
12.392643 13.748901 -1.79036
12.313099 13.610443 -1.757493
12.420005 13.54335 -1.80704
12.476047 13.590469 -1.729815
12.557735 13.805878 -1.646242
12.469818 13.750763 -1.670769
12.479202 13.68454 -1.702117
12.76633 13.531128 -1.6700161
12.868015 13.483063 -1.6408401
12.910427 13.528992 -1.640474
12.747921 13.337418 -1.6430809
12.722934 13.481445 -1.67094
12.735679 13.410049 -1.657779
12.829116 13.262985 -1.652943
12.832199 13.317657 -1.718441
12.896469 13.267288 -1.632328
12.782695 13.391663 -1.6415761
12.781269 13.470032 -1.656154
12.814514 13.448883 -1.639693
12.815979 13.522964 -1.654641
12.712906 13.283249 -1.644587
12.662933 13.517685 -1.644781
12.687343 13.362778 -1.658288
12.888504 13.371918 -1.649323
12.62585 13.27861 -1.6591721
12.629673 13.368179 -1.653115
12.633022 13.457626 -1.647058
12.636295 13.505005 -1.651912
12.62857 13.681549 -1.6567039
12.817093 13.821365 -1.660334
12.805732 13.640259 -1.6455131
12.678562 13.632324 -1.664144
12.67873 13.678345 -1.6743309
12.666687 13.725342 -1.656279
12.804172 13.586838 -1.668359
12.717334 13.805191 -1.736093
12.658432 13.776901 -1.660412
12.724449 13.74968 -1.658723
12.838535 13.795914 -1.675734
12.845737 13.689148 -1.644752
12.860603 13.62207 -1.669271
12.889076 13.604248 -1.654512
12.896576 13.726669 -1.645503
12.751911 13.606003 -1.644387
12.788143 13.712631 -1.665187
12.76514 13.791 -1.658708
12.961311 12.916779 -1.641557
12.952221 12.836838 -1.646605
12.985588 12.747025 -1.715278
13.20795 12.920181 -1.77011
12.926384 12.774246 -1.649356
13.037044 12.736938 -1.652096
13.063545 12.770309 -1.795127
13.174877 12.821106 -1.643157
13.116584 12.87825 -1.623735
13.120262 12.814423 -1.646679
13.165161 12.90094 -1.8189009
13.185398 12.96051 -1.633285
12.92575 12.994095 -1.658421
13.207878 13.05249 -1.697493
13.029422 12.937546 -1.641885
13.036895 13.164932 -1.379886
13.012565 13.091354 -1.346064
13.116077 13.038254 -1.522137
13.086006 12.93663 -1.5239609
13.107303 13.185745 -1.343196
13.077942 13.210861 -1.35932
13.192344 13.158051 -1.5319099
13.058277 13.141113 -1.3432651
12.987156 13.222809 -1.534326
13.389476 12.832428 -1.733961
13.241348 12.904694 -1.775265
13.440097 12.822601 -1.760077
13.317249 12.898193 -1.7587039
13.302154 12.813965 -1.744768
13.490528 12.94751 -1.626228
13.386997 12.948853 -1.778827
13.36964 13.004089 -1.780488
13.435539 13.204178 -1.6469001
13.37228 13.128006 -1.664674
13.325782 12.942322 -1.744712
13.414886 13.045776 -1.606354
13.426799 12.960297 -1.75903
13.368549 13.2164 -1.64475
13.28099 13.052216 -1.812757
13.231426 12.998871 -1.7905869
13.292232 13.083023 -1.470795
13.364216 13.061829 -1.5278341
13.000961 13.319611 -1.656224
13.026432 13.432114 -1.653357
13.200466 13.391663 -1.66388
13.067051 13.529251 -1.650856
13.084011 13.431015 -1.63326
13.075622 13.334579 -1.659879
12.94791 13.281525 -1.655514
12.978092 13.361725 -1.631092
12.966945 13.498428 -1.651989
13.088554 13.498581 -1.695701
13.131252 13.370255 -1.660959
13.022606 13.489685 -1.650472
13.14241 13.460297 -1.635101
12.924999 13.327408 -1.63001
12.93333 13.411011 -1.6497051
13.217563 13.472839 -1.639209
13.21907 13.526123 -1.725969
13.214683 13.753784 -1.645493
13.185062 13.797592 -1.663257
13.170318 13.709702 -1.645474
13.000682 13.799423 -1.647386
13.035976 13.701355 -1.658676
13.003036 13.612656 -1.64088
13.004673 13.54686 -1.651139
13.169876 13.595108 -1.653618
12.942573 13.801697 -1.651577
12.958355 13.752914 -1.647766
12.98516 13.670593 -1.657011
12.949894 13.577911 -1.63973
13.125644 13.555145 -1.6532331
13.116249 13.607544 -1.654503
13.097877 13.694153 -1.64167
13.067901 13.820465 -1.650407
13.13739 13.763489 -1.662006
13.077198 13.773926 -1.671829
13.287567 13.285995 -1.637583
13.366668 13.424484 -1.6551549
13.350597 13.310013 -1.6402
13.338371 13.288788 -1.644045
13.329345 13.378922 -1.655551
13.331394 13.535599 -1.642518
13.405075 13.342682 -1.641669
13.269684 13.413391 -1.666802
13.273105 13.505508 -1.640674
13.286792 13.648087 -1.658374
13.32434 13.745636 -1.659296
13.236976 13.613205 -1.657191
13.336521 13.683182 -1.6595581
13.276012 13.707321 -1.658582
13.261718 13.795227 -1.645891
12.416271 13.886063 -1.6854481
12.391468 13.999634 -1.675411
12.389801 14.050934 -1.662439
12.536808 13.911667 -1.64633
12.5247 13.989853 -1.6561739
12.38816 14.146423 -1.655455
12.341827 13.985947 -1.7625099
12.551387 14.076736 -1.654398
12.585846 13.951538 -1.646641
12.593731 14.006088 -1.659677
12.604789 14.10704 -1.6559581
12.500698 14.043793 -1.653241
12.491615 14.106277 -1.6793261
12.487373 13.8508 -1.6635931
12.443233 13.932678 -1.657343
12.45824 14.002502 -1.6532871
12.439571 14.065552 -1.678968
12.322731 14.028976 -1.76406
12.325039 13.948303 -1.757781
12.334785 14.448273 -1.651237
12.331363 14.358704 -1.657409
12.39339 14.44902 -1.7358609
12.392585 14.393906 -1.656951
12.442718 14.43042 -1.657668
12.45673 14.380829 -1.719838
12.480739 14.324142 -1.648496
12.534542 14.365982 -1.659017
12.502082 14.263397 -1.732828
12.517185 14.167618 -1.741272
12.456543 14.205795 -1.72904
12.615997 14.363876 -1.654189
12.329288 14.159775 -1.719676
12.600635 14.182373 -1.680778
12.386009 14.24173 -1.648473
12.545631 14.346756 -1.650964
12.335498 14.260132 -1.664716
12.434795 14.281387 -1.6486731
12.586651 14.298721 -1.748118
12.561031 14.238785 -1.746081
12.540874 14.150162 -1.679317
12.776001 14.026001 -1.653597
12.756519 14.102356 -1.663956
12.855281 13.91655 -1.664144
12.778526 13.936752 -1.6514601
12.745823 13.85762 -1.660674
12.719345 13.908035 -1.649585
12.69445 14.020248 -1.648772
12.91505 13.88826 -1.662766
12.695865 14.076706 -1.6616189
12.866111 13.854706 -1.66155
12.884262 14.096191 -1.655733
12.807621 13.879944 -1.6634099
12.834907 13.968597 -1.652957
12.905662 13.950562 -1.66528
12.89674 13.994934 -1.655213
12.662838 13.876663 -1.648091
12.648349 13.977051 -1.648834
12.643467 14.04274 -1.660453
12.663746 14.131943 -1.658321
12.832924 14.058105 -1.65504
12.800399 14.145294 -1.663955
12.829075 14.219391 -1.66381
12.833557 14.319534 -1.685896
12.819698 14.433868 -1.714703
12.707153 14.450806 -1.653841
12.701008 14.296844 -1.712036
12.668354 14.205978 -1.68334
12.645153 14.424545 -1.6517479
12.879348 14.367523 -1.685528
12.860935 14.171417 -1.666294
12.725322 14.241653 -1.684435
12.779323 14.245209 -1.802627
12.739792 14.324692 -1.714178
12.774971 14.382553 -1.713634
12.722671 14.157104 -1.660684
12.775909 14.188141 -1.6622469
12.900882 14.420578 -1.742334
12.91233 14.304718 -1.663733
12.921466 14.171906 -1.668821
12.542671 14.504044 -1.659106
12.573066 14.561142 -1.657113
12.561836 14.666351 -1.650205
12.481945 14.604095 -1.659068
12.504844 14.752838 -1.673504
12.492206 14.556595 -1.653481
12.492752 14.467133 -1.658386
12.427158 14.533875 -1.6509711
12.418228 14.648773 -1.675355
12.43143 14.719864 -1.664021
12.359386 14.514359 -1.648085
12.457664 14.7052 -1.673888
12.593059 14.457321 -1.736019
12.611141 14.546448 -1.733849
12.373298 14.598419 -1.676103
12.513454 14.6259 -1.649956
12.38145 14.671524 -1.66445
12.590858 14.853897 -1.664129
12.608791 14.936569 -1.6788321
12.387058 14.923737 -1.6532151
12.359543 14.861114 -1.644513
12.380657 14.969788 -1.654618
12.445343 14.953247 -1.6434979
12.482933 14.872314 -1.67585
12.481239 14.768356 -1.663594
12.475349 15.042648 -1.6562051
12.558132 15.017319 -1.6462539
12.327869 15.035446 -1.656468
12.319107 14.812332 -1.6454
12.390903 14.770096 -1.6774729
12.431759 14.827118 -1.675953
12.493503 14.99379 -1.6437449
12.536613 14.914703 -1.676102
12.515415 14.824936 -1.7324229
12.430759 14.966324 -1.6530499
12.413929 15.020142 -1.653399
12.553554 14.886414 -1.735086
12.54137 14.805038 -1.664553
12.680355 14.724899 -1.653722
12.680599 14.627289 -1.659721
12.644966 14.575607 -1.660936
12.854694 14.634552 -1.663182
12.862457 14.707108 -1.666548
12.763679 14.631012 -1.665097
12.749729 14.49736 -1.653291
12.907215 14.60672 -1.6558011
12.913116 14.661057 -1.665619
12.820808 14.730743 -1.7599289
12.81031 14.671768 -1.665434
12.887359 14.536896 -1.659368
12.903179 14.75383 -1.666113
12.660339 14.49202 -1.659073
12.621124 14.695496 -1.651963
12.719021 14.517609 -1.6615061
12.708809 14.608643 -1.68128
12.691349 14.687134 -1.739249
12.814365 14.52124 -1.655763
12.819133 14.586182 -1.663963
12.627937 14.645294 -1.723828
12.719509 15.057541 -1.868042
12.731201 14.763107 -1.654351
12.624031 14.799515 -1.757193
12.747806 14.987137 -1.6835901
12.751327 14.88063 -1.679916
12.913658 14.932556 -1.667145
12.914055 14.821579 -1.799353
12.622749 15.041138 -1.648764
12.870517 15.056503 -1.686232
12.88195 14.992172 -1.6828541
12.775482 14.816757 -1.665112
12.875404 14.886459 -1.667536
12.843746 14.828781 -1.65712
12.79309 14.790146 -1.656489
12.823951 14.954651 -1.681826
12.683651 14.955795 -1.681917
12.68576 14.852692 -1.67777
12.806503 15.024628 -1.684556
13.07537 13.92839 -1.681036
13.052623 13.998291 -1.66519
13.118354 13.858826 -1.651163
13.117965 13.979477 -1.680168
13.095359 14.03804 -1.66559
13.168697 13.897385 -1.651919
12.961017 13.924759 -1.663574
12.958801 13.981995 -1.666816
12.947437 14.032974 -1.655953
12.943786 14.125885 -1.657555
13.176841 14.013397 -1.681497
13.141796 14.13739 -1.66897
12.992458 14.076904 -1.655936
13.00045 14.024734 -1.6667531
13.010837 13.900726 -1.678977
13.215007 13.847977 -1.662021
13.227359 13.927689 -1.65381
13.189209 14.109924 -1.667619
12.979076 14.452332 -1.732926
12.946781 14.392441 -1.688095
12.959469 14.342072 -1.664498
13.161457 14.219238 -1.657591
13.032009 14.217331 -1.657069
13.00272 14.290619 -1.667861
12.956524 14.249771 -1.667468
12.972698 14.187225 -1.6552449
13.048786 14.331635 -1.668255
13.087639 14.159576 -1.6566629
13.122383 14.306549 -1.6569639
13.106998 14.251221 -1.681017
13.175781 14.342941 -1.65804
13.134788 14.419724 -1.668268
13.10041 14.367264 -1.66943
13.112583 14.167252 -1.664217
13.0065 14.379623 -1.665264
13.245891 14.015808 -1.672596
13.277504 13.966675 -1.654569
13.271289 13.87439 -1.664516
13.079944 14.47438 -1.663993
13.040168 14.555786 -1.734328
13.073852 14.606049 -1.735639
13.066616 14.715164 -1.6586961
13.116714 14.754532 -1.659286
13.103767 14.658218 -1.736344
12.99916 14.509338 -1.731799
12.965355 14.539764 -1.756608
12.977298 14.625717 -1.65903
13.020801 14.603653 -1.771996
13.013576 14.678802 -1.65773
13.126564 14.512405 -1.6647609
13.031036 14.999298 -1.657768
13.009163 14.931885 -1.660903
13.035797 14.791046 -1.665699
12.952255 14.792328 -1.666842
12.941898 14.909485 -1.658007
12.957546 14.973328 -1.667558
13.090171 14.917252 -1.667872
13.04433 14.875427 -1.667527
13.088062 14.823837 -1.667336
12.578308 15.208313 -1.6618201
12.519687 15.082138 -1.656597
12.367469 15.080338 -1.65602
12.50782 15.314346 -1.736053
12.409729 15.122543 -1.655972
12.438049 15.217636 -1.65189
12.50798 15.19342 -1.6578749
12.429691 15.351257 -1.7231849
12.572456 15.11348 -1.658197
12.51503 15.251831 -1.7984951
12.607166 15.315048 -1.656442
12.365047 15.202927 -1.6481071
12.341362 15.136505 -1.65113
12.438682 15.103439 -1.775824
12.471626 15.145279 -1.658718
12.438862 15.202866 -1.658269
12.542534 15.290894 -1.65379
12.483425 15.261322 -1.651894
12.476097 15.393265 -1.726647
12.481105 15.513611 -1.657649
12.455516 15.608536 -1.655913
12.469947 15.667328 -1.662948
12.427765 15.404694 -1.67811
12.568096 15.451813 -1.683345
12.554214 15.529312 -1.6614209
12.569263 15.674652 -1.658908
12.604992 15.568039 -1.662171
12.364254 15.374207 -1.676389
12.357086 15.460281 -1.653131
12.384754 15.59021 -1.652545
12.526302 15.627197 -1.659282
12.319046 15.63916 -1.655161
12.421875 15.483948 -1.655767
12.490432 15.493698 -1.662515
12.499279 15.42662 -1.6809061
12.823639 15.284409 -1.6646039
12.770603 15.356262 -1.665243
12.836002 15.184402 -1.652784
12.681781 15.070953 -1.650521
12.680942 15.178131 -1.702213
12.681835 15.274994 -1.664526
12.78717 15.198639 -1.753844
12.749149 15.092499 -1.6534081
12.633754 15.136749 -1.661006
12.808098 15.122849 -1.655167
12.861599 15.12529 -1.711973
12.886249 15.223572 -1.653415
12.890598 15.186218 -1.711053
12.915462 15.109055 -1.6854351
12.86428 15.327896 -1.664601
12.736122 15.203339 -1.6638089
12.733917 15.264877 -1.700883
12.841518 15.605789 -1.799762
12.853489 15.515656 -1.659513
12.797691 15.481888 -1.65799
12.664081 15.598495 -1.664055
12.86174 15.435455 -1.666363
12.708313 15.392471 -1.65797
12.912147 15.666504 -1.7359951
12.894981 15.563583 -1.659148
12.633278 15.391891 -1.7567329
12.709026 15.64328 -1.6640511
12.694824 15.514771 -1.686797
12.63961 15.474396 -1.686144
12.793953 15.607758 -1.686676
12.765121 15.677002 -1.6655591
12.7472 15.558273 -1.687093
12.741615 15.482147 -1.756701
12.914409 15.468536 -1.667922
12.898937 15.376923 -1.663793
12.823467 15.388931 -1.6668
12.758712 15.431473 -1.658735
12.367771 15.82637 -1.736418
12.338737 15.939987 -1.706327
12.395626 15.789871 -1.706062
12.43782 15.88031 -1.741913
12.386791 15.730057 -1.7523611
12.324497 15.693756 -1.655659
12.338154 15.867004 -1.675627
12.545353 15.78331 -1.674546
12.443615 15.756973 -1.658898
12.44511 15.846344 -1.706521
12.457927 15.938507 -1.7404391
12.491539 15.737839 -1.6595941
12.519012 15.915634 -1.708431
12.529487 15.850189 -1.774438
12.492401 16.011856 -1.739889
12.533909 16.104324 -1.739054
12.31369 16.084869 -1.711818
12.544109 16.05777 -1.757826
12.428283 16.023636 -1.763863
12.60675 16.04567 -1.825712
12.589332 15.98793 -1.709856
12.442943 16.070709 -1.765188
12.766903 15.785309 -1.667832
12.763027 15.940399 -1.71691
12.622184 15.839249 -1.675947
12.62043 15.713745 -1.659658
12.792717 15.864685 -1.753947
12.824718 15.815231 -1.7653331
12.815464 15.716537 -1.6663131
12.720417 15.754471 -1.736344
12.708145 15.868134 -1.715546
12.671482 15.753036 -1.66041
12.699497 15.92981 -1.738081
12.871929 15.769821 -1.676492
12.844368 16.076126 -1.717152
12.733822 16.192215 -1.803955
12.807308 16.019318 -1.716662
12.639286 15.998016 -1.765354
12.679615 16.108078 -1.7098041
12.786144 16.087006 -1.740231
12.925026 15.274109 -1.652542
12.975002 15.313614 -1.653175
12.989448 15.076584 -1.683847
13.015682 15.202988 -1.685261
12.951996 15.253326 -1.72833
12.968383 15.15303 -1.685701
12.93058 15.617187 -1.6580271
12.950981 15.409912 -1.665401
12.958229 15.509949 -1.668286
