# .PCD v0.7 - Point Cloud Data file format
VERSION 0.7
FIELDS x y z
SIZE 4 4 4
TYPE F F F
COUNT 1 1 1
WIDTH 1286
HEIGHT 1
VIEWPOINT 0 0 0 1 0 0 0
POINTS 1286
DATA ascii
9.8154602 80.143082 -1.717024
9.7788916 80.175766 -1.743175
9.8021078 80.399277 -1.779667
9.8590746 80.227768 -1.749139
9.8496742 80.383987 -1.7770391
9.8415623 80.477463 -1.780231
9.7947226 80.286789 -1.7753429
9.7897158 80.235641 -1.79336
9.7770987 80.346725 -1.790836
9.7909851 80.498276 -1.779063
9.8287096 80.546432 -1.776884
9.8092546 80.611374 -1.774297
9.862278 80.827744 -1.778676
9.8537979 80.899918 -1.775038
9.8411188 80.966354 -1.846707
9.8641386 81.400894 -1.76274
9.844677 81.240311 -1.727699
9.8586731 81.157303 -1.793242
9.8286486 81.448593 -1.76245
9.8498192 81.645004 -1.786672
11.082897 80.869217 -1.960561
10.324306 80.808029 -1.93583
10.117809 80.679245 -1.93056
9.9957581 80.631393 -1.950869
10.315807 80.858475 -1.925481
10.046474 80.745651 -1.95549
10.650188 80.778 -1.929588
10.280693 80.790817 -1.926528
9.9438658 80.156418 -1.678936
10.007049 80.150101 -1.673647
10.058059 80.123032 -1.674605
10.077106 80.072037 -1.6090291
10.092903 80.171371 -1.664698
9.8962698 80.131302 -1.682393
9.9726439 80.325607 -1.788449
9.9476728 80.259201 -1.763405
9.9461479 80.401627 -1.754953
10.069385 80.369308 -1.784541
10.060356 80.324173 -1.753058
9.898283 80.248703 -1.753484
9.9170027 80.331833 -1.777186
9.9065151 80.376297 -1.7725919
9.9239082 80.479813 -1.749411
10.118515 80.235977 -1.716567
10.118549 80.301163 -1.817517
10.132438 80.345016 -1.7895401
10.12783 80.393661 -1.777789
10.067127 80.266251 -1.75802
10.034679 80.457169 -1.802251
10.037494 80.370773 -1.750484
10.169391 80.425339 -1.784628
10.164772 80.286819 -1.750743
10.020679 80.23732 -1.766503
10.165146 80.19368 -1.654559
10.172668 80.124619 -1.623633
10.173568 80.062912 -1.607025
10.422348 80.136948 -1.638887
10.362232 80.148453 -1.642738
10.271595 80.123398 -1.5928071
10.315338 80.07811 -1.592869
10.300621 80.283432 -1.6730061
10.314293 80.341812 -1.7251641
10.318374 80.397354 -1.743175
10.308498 80.474625 -1.8120871
10.343029 80.22374 -1.636919
10.237148 80.216385 -1.644402
10.316333 80.198898 -1.639533
10.352531 80.322495 -1.700407
10.355201 80.420547 -1.746065
10.25616 80.38887 -1.7639149
10.266048 80.328537 -1.731768
10.444065 80.321396 -1.660704
10.288334 80.262924 -1.6867321
10.186275 80.490707 -1.800629
10.438381 80.210892 -1.60747
10.416942 80.283035 -1.649802
10.406059 80.441727 -1.753217
10.194034 80.2668 -1.701037
10.191677 80.341537 -1.767954
10.214908 80.397415 -1.7674381
10.454273 80.466232 -1.7589591
10.401127 80.345139 -1.690304
10.234363 80.471603 -1.8044209
10.094055 80.52327 -1.82661
10.092624 80.620255 -1.8045779
9.9516668 80.646622 -1.782921
10.121711 80.730301 -1.788493
9.9517021 80.758865 -1.798009
10.009205 80.708755 -1.799468
10.165779 80.790634 -1.7420959
9.9848356 80.510269 -1.788739
10.004356 80.557938 -1.831074
10.067081 80.659164 -1.800913
10.104469 80.789169 -1.785674
10.088207 80.60701 -1.8441041
10.156135 80.681839 -1.789198
9.9577789 80.572464 -1.786945
9.8762779 80.57164 -1.7447129
9.8763056 80.689865 -1.820663
9.8953218 80.769241 -1.779717
9.9285774 80.710831 -1.78076
9.9148588 80.654617 -1.822749
9.9115524 80.533432 -1.745399
9.8997974 80.835251 -1.791483
9.900938 80.976944 -1.811596
10.035217 81.069138 -1.8683209
10.110557 81.056351 -1.873842
10.119674 80.951187 -1.878842
9.9949303 80.978836 -1.7388999
9.9940557 80.895309 -1.813001
9.9959259 80.846054 -1.882102
10.165069 80.975632 -1.895745
10.090439 80.86113 -1.741801
9.9283752 81.029678 -1.795953
10.142299 80.883377 -1.879185
10.060173 80.831711 -1.786236
10.062919 80.903122 -1.7401921
10.071033 80.967178 -1.868356
10.061718 81.054977 -1.874862
9.9745293 81.025406 -1.7363141
9.9614706 80.983078 -1.798533
9.9414816 80.839828 -1.8801171
10.010566 80.797287 -1.887678
10.192562 80.593674 -1.799367
10.233413 80.525528 -1.804222
10.178211 80.555862 -1.7965339
10.39693 80.553268 -1.810981
10.190387 80.746811 -1.74418
10.426014 80.599869 -1.755951
10.37397 80.508163 -1.751754
10.29554 80.723007 -1.868199
10.292984 80.614609 -1.813246
10.24879 80.604599 -1.752859
10.427993 80.672104 -1.750754
10.180576 80.627243 -1.791171
10.328903 80.537857 -1.752617
10.233516 80.654922 -1.749317
10.437095 80.748367 -1.744748
10.340366 80.579941 -1.813123
10.352874 80.692551 -1.872054
10.367698 80.847 -1.743315
10.343498 80.902634 -1.74138
10.435928 80.969376 -1.757352
10.406204 80.859146 -1.791638
10.38676 80.992447 -1.813923
10.421413 81.034134 -1.754374
10.241329 80.910324 -1.877925
10.309238 80.952255 -1.740662
10.292297 81.01207 -1.737916
10.242401 80.993912 -1.8128541
10.325073 81.09581 -1.8909889
10.254966 81.059891 -1.7376029
10.382953 81.085098 -1.754122
10.190529 80.886063 -1.883496
10.44355 80.804672 -1.794776
10.464061 81.074295 -1.799541
10.214988 80.962906 -1.878901
10.184703 81.046341 -1.810154
10.731769 80.164658 -1.612164
10.67202 80.056656 -1.6282901
10.587085 80.178238 -1.648712
10.485134 80.128677 -1.634344
10.634113 80.180038 -1.65315
10.534557 80.141861 -1.6060849
10.499431 80.088821 -1.665301
10.579963 80.031845 -1.578512
10.773536 80.106796 -1.59218
10.612121 80.12822 -1.6017309
10.479648 80.038712 -1.584637
10.676605 80.10582 -1.598994
10.702823 80.274002 -1.61816
10.68919 80.355118 -1.6542341
10.681739 80.203995 -1.6129169
10.668468 80.267532 -1.609548
10.653011 80.363419 -1.662845
10.687969 80.443253 -1.681188
10.701599 80.479874 -1.7102129
10.748397 80.33699 -1.658473
10.630272 80.235886 -1.656289
10.764694 80.395981 -1.6506799
10.60791 80.289078 -1.637414
10.563072 80.472092 -1.754431
10.624988 80.432053 -1.690724
10.566566 80.406845 -1.70298
10.768093 80.442337 -1.6865669
10.525188 80.246475 -1.620777
10.586223 80.2556 -1.631233
10.629528 80.383835 -1.708591
10.487217 80.246658 -1.63622
10.536194 80.440842 -1.775254
10.537727 80.335861 -1.648616
10.509372 80.192062 -1.603941
10.808101 80.168167 -1.62124
11.066028 80.182388 -1.624625
11.044601 80.086105 -1.596332
10.924827 80.012619 -1.589197
10.824985 80.075943 -1.591054
10.905609 80.126175 -1.585626
11.004333 80.130844 -1.59598
10.882946 80.049973 -1.5891089
10.861332 80.178696 -1.602401
10.982784 80.093216 -1.582956
10.947689 80.164597 -1.5975029
11.036403 80.045731 -1.582551
10.874027 80.425003 -1.634088
10.94844 80.412216 -1.704571
10.879375 80.288773 -1.654138
10.863647 80.229965 -1.634951
10.789806 80.347855 -1.619522
10.8167 80.288284 -1.659211
10.999679 80.198654 -1.627932
10.81398 80.458786 -1.680216
10.909118 80.364578 -1.609542
10.991001 80.289932 -1.609622
11.032367 80.400162 -1.6212029
10.993862 80.449448 -1.622931
10.788135 80.23735 -1.6403461
10.906166 80.485794 -1.66574
11.054783 80.269028 -1.6067261
11.055809 80.325577 -1.717604
11.062038 80.437119 -1.6189801
10.927646 80.21788 -1.634068
10.739132 80.725357 -1.792735
10.749855 80.665787 -1.7622581
10.77658 80.542435 -1.741545
10.53416 80.732681 -1.764998
10.650062 80.580246 -1.766153
10.673217 80.519974 -1.768363
10.612114 80.73381 -1.8110549
10.617195 80.66481 -1.8154581
10.610515 80.523911 -1.765072
10.550922 80.535721 -1.750862
10.488445 80.567642 -1.753409
10.576107 80.609543 -1.769806
10.539673 80.66185 -1.769158
10.481788 80.678391 -1.799824
10.495437 80.651993 -1.870684
10.5084 80.544052 -1.805812
10.699253 80.790543 -1.758007
10.691829 80.708939 -1.763652
10.507759 80.498154 -1.764299
10.710502 80.600906 -1.7814291
10.639625 80.700577 -1.821854
10.50193 81.025467 -1.799809
10.763954 81.036667 -1.842819
10.715519 80.869431 -1.785537
10.478199 80.92067 -1.757216
10.558098 81.044907 -1.887718
10.569286 81.000626 -1.8917201
10.554065 80.94313 -1.813357
10.543995 80.813248 -1.7962379
10.70689 81.080643 -1.751936
10.716858 81.018021 -1.755543
10.676029 80.854019 -1.7557009
10.496605 80.857986 -1.7598079
10.518684 80.797348 -1.762012
10.600521 80.79866 -1.8074811
10.628738 80.869247 -1.8162071
10.747474 80.967789 -1.756641
10.768089 80.911423 -1.758994
10.597404 81.038773 -1.74991
10.638855 81.060959 -1.779358
10.663402 80.923477 -1.752288
10.644146 80.988968 -1.74962
10.75201 80.80397 -1.782657
10.744278 80.855606 -1.777926
10.904472 80.631241 -1.7494791
10.900348 80.57576 -1.737671
10.995701 80.750381 -1.7830319
10.968502 80.508713 -1.658404
10.827297 80.588089 -1.741634
11.045562 80.578751 -1.663754
11.065628 80.720657 -1.779611
10.81105 80.729843 -1.76858
10.995289 80.674332 -1.761397
10.950748 80.657761 -1.754258
10.946392 80.750229 -1.823222
10.854351 80.507828 -1.686645
10.839367 80.625748 -1.7918299
10.869556 80.696976 -1.76632
10.881145 80.781357 -1.818998
11.011631 80.527908 -1.65069
10.79433 80.678452 -1.79173
11.041465 81.048172 -1.835063
11.075866 80.918777 -1.776646
10.973354 80.809494 -1.780809
10.961445 80.874832 -1.77738
10.949814 80.94014 -1.773955
10.970043 80.997574 -1.793568
10.972805 81.054001 -1.809516
11.008434 80.889603 -1.798864
11.02835 80.947769 -1.8124959
10.820816 80.982315 -1.846506
10.869716 80.832718 -1.816692
10.795696 80.859268 -1.760511
10.826858 80.809341 -1.761608
10.93214 80.83049 -1.808654
10.893379 80.905807 -1.853024
10.845661 80.91011 -1.856963
10.87194 81.010513 -1.792564
10.866897 81.06163 -1.789139
10.92477 80.997299 -1.77214
10.906803 81.058548 -1.769524
11.357322 81.092392 -1.920712
11.577221 81.045883 -1.968702
11.272461 81.078354 -1.920192
11.222908 80.109848 -1.6505539
11.090812 80.135696 -1.626974
11.379459 80.145828 -1.660207
11.161346 80.040421 -1.631529
11.320919 80.183884 -1.661741
11.145031 80.147232 -1.651643
11.312835 80.069077 -1.6018161
11.091571 80.046066 -1.59593
11.344951 80.026321 -1.603092
11.393089 79.995651 -1.6022609
11.248867 80.144089 -1.603055
11.198772 80.281235 -1.716831
11.393291 80.358475 -1.621456
11.107231 80.317947 -1.675136
11.229267 80.362167 -1.611187
11.372795 80.270493 -1.609221
11.160495 80.463699 -1.620281
11.107708 80.468826 -1.6340179
11.109157 80.375046 -1.620357
11.360984 80.450638 -1.613497
11.21059 80.430038 -1.608314
11.259117 80.220047 -1.663638
11.143928 80.373306 -1.61874
11.271694 80.462906 -1.624878
11.267982 80.414993 -1.644838
11.283649 80.354507 -1.717582
11.249355 80.284256 -1.720222
11.323307 80.307358 -1.610078
11.309379 80.377335 -1.62599
11.301136 80.472702 -1.6161079
11.179096 80.225906 -1.601331
11.359703 80.36409 -1.602973
11.217125 80.187271 -1.601774
11.125019 80.253098 -1.602984
11.640209 80.100723 -1.619673
11.647678 80.15889 -1.617234
11.521778 80.161392 -1.606631
11.626274 80.021805 -1.609458
11.513294 80.068527 -1.6816421
11.40493 80.086014 -1.662321
11.552116 80.111649 -1.608092
11.582641 80.062027 -1.609553
11.470321 80.052872 -1.660055
11.467308 80.097824 -1.679925
11.477493 80.151779 -1.7705539
11.69453 80.181168 -1.5934041
11.415821 80.229355 -1.609136
11.395446 80.435623 -1.6191339
11.465496 80.192978 -1.608274
11.623977 80.407028 -1.675167
11.467708 80.290573 -1.637465
11.558834 80.246902 -1.617447
11.58464 80.360825 -1.614931
11.503227 80.423752 -1.605237
11.680896 80.422623 -1.717059
11.4402 80.442795 -1.608294
11.459583 80.347672 -1.597772
11.638164 80.223984 -1.5942481
11.588615 80.271378 -1.594416
11.678714 80.304825 -1.599458
11.532474 80.314713 -1.595255
11.575866 80.412094 -1.600878
11.114116 80.781631 -1.78219
11.184707 80.520065 -1.620882
11.321232 80.732834 -1.746015
11.303215 80.649521 -1.659659
11.225593 80.641342 -1.669561
11.191349 80.501694 -1.62598
11.277046 80.520279 -1.6139849
11.252132 80.600266 -1.718539
11.314785 80.600601 -1.692143
11.328453 80.519302 -1.666297
11.364391 80.575241 -1.639231
11.342945 80.633194 -1.658509
11.171337 80.569168 -1.630904
11.186649 80.637558 -1.6745
11.186855 80.7444 -1.779323
11.278793 80.766251 -1.7751091
11.285579 80.678055 -1.719396
11.375656 80.775101 -1.748487
11.108066 80.538712 -1.627614
11.099868 80.718246 -1.777369
11.136272 80.588486 -1.663875
11.176853 80.80043 -1.780095
11.375354 80.871689 -1.792276
11.095508 81.054367 -1.76967
11.334518 80.950424 -1.834146
11.292038 80.857864 -1.768615
11.245556 80.841751 -1.80677
11.280224 80.905319 -1.806663
11.266052 80.981888 -1.837047
11.09349 81.008072 -1.770064
11.382995 81.019058 -1.784757
11.192798 80.998978 -1.766271
11.17976 80.922806 -1.772945
11.172424 81.05394 -1.763909
11.137397 80.92836 -1.774684
11.093132 80.849197 -1.779599
11.204124 80.815018 -1.815323
11.217415 80.878464 -1.773154
11.447834 80.791916 -1.745062
11.46418 80.707291 -1.681367
11.462665 80.571579 -1.632328
11.43666 80.61882 -1.67759
11.53387 80.725998 -1.671828
11.52618 80.622757 -1.648645
11.551895 80.577866 -1.652339
11.688575 80.646255 -1.646381
11.696563 80.719528 -1.72952
11.55616 80.793442 -1.685828
11.681121 80.512283 -1.620742
11.652599 80.560318 -1.6437629
11.484932 80.517288 -1.63459
11.672008 80.670395 -1.619917
11.408989 80.687851 -1.692169
11.629409 80.617447 -1.641627
11.635864 80.728867 -1.661535
11.434913 80.549545 -1.598354
11.625332 80.506363 -1.589057
11.521656 80.522476 -1.594534
11.644497 80.970444 -1.785338
11.644272 80.925034 -1.780187
11.635337 80.807724 -1.6739089
11.684543 80.797806 -1.670938
11.543888 80.988022 -1.794456
11.549495 80.894058 -1.762684
11.585239 80.845688 -1.720328
11.421558 80.826096 -1.746778
11.414779 80.967606 -1.785745
11.696075 80.949142 -1.788175
11.626465 81.028488 -1.784528
11.603969 81.088852 -1.7822011
11.463169 81.050552 -1.832972
11.444881 80.86882 -1.776307
11.50299 80.866776 -1.757424
11.494018 80.945755 -1.7809269
11.506393 81.044083 -1.793721
11.836437 80.100937 -1.643962
11.913376 80.14415 -1.68783
11.997276 80.044693 -1.781402
11.727218 80.064774 -1.618131
11.762321 80.014542 -1.619136
11.772194 80.130325 -1.64469
11.954979 80.132706 -1.6188951
11.868061 80.122818 -1.601313
11.868049 79.977036 -1.595412
11.944568 80.051102 -1.602041
11.774311 80.074356 -1.595086
11.734333 80.12767 -1.594245
11.811153 80.018967 -1.596264
11.903129 80.084427 -1.6021121
11.804668 80.172195 -1.601627
11.830856 80.408585 -1.617497
11.806305 80.307907 -1.646759
11.905887 80.238419 -1.649925
11.909443 80.325211 -1.6179889
11.955356 80.472794 -1.6282099
12.001705 80.377731 -1.635237
11.978862 80.235519 -1.6196769
11.926002 80.453079 -1.634536
11.736232 80.460403 -1.633216
11.879833 80.373703 -1.616542
11.842445 80.217758 -1.615355
11.854156 80.270676 -1.6489151
11.747631 80.366165 -1.673561
11.723831 80.350693 -1.646914
11.848804 80.472672 -1.722303
11.706833 80.260941 -1.60113
11.875171 80.423264 -1.578524
11.747787 80.226761 -1.601071
11.981331 80.331314 -1.57743
11.93827 80.383591 -1.576985
11.818901 80.467484 -1.579397
12.279113 79.981247 -1.617519
12.006687 80.099899 -1.619752
12.154731 80.174362 -1.634917
12.218471 80.15715 -1.631762
12.186191 80.055069 -1.613602
12.104942 80.117325 -1.619588
12.048771 80.085587 -1.618798
12.052101 80.148697 -1.620959
12.284568 80.120102 -1.629521
12.290592 80.113571 -1.630298
12.190178 79.985367 -1.631313
12.01839 79.977524 -1.603197
12.098186 80.166763 -1.580085
12.259704 80.032455 -1.5784121
12.192489 80.06813 -1.580302
12.155231 80.123947 -1.579198
12.224003 80.331161 -1.630035
12.199009 80.205521 -1.629486
12.113968 80.291672 -1.6294481
12.140236 80.439865 -1.629114
12.102478 80.371872 -1.636163
12.042579 80.387558 -1.627872
12.261135 80.273788 -1.6309969
12.083435 80.48494 -1.63016
12.305141 80.220901 -1.631285
12.289825 80.453049 -1.733972
12.012066 80.439041 -1.62651
12.284336 80.490067 -1.7861789
12.145019 80.240524 -1.630811
12.150917 80.328293 -1.635867
12.187065 80.388657 -1.629071
12.018627 80.194382 -1.619917
12.017868 80.274887 -1.578537
12.280719 80.364761 -1.599986
12.061271 80.222946 -1.57898
12.192951 80.461502 -1.599447
12.228439 80.407578 -1.60059
11.824752 80.735733 -1.670841
11.81274 80.663864 -1.654374
11.700153 80.56514 -1.650225
12.00449 80.679245 -1.656293
11.885322 80.759354 -1.656966
11.724548 80.773422 -1.672385
11.769001 80.564713 -1.635203
11.767624 80.652603 -1.614826
11.776062 80.717392 -1.658267
11.774181 80.790451 -1.682138
11.970379 80.753342 -1.611122
11.88652 80.533218 -1.639873
11.838985 80.575851 -1.640648
11.857555 80.636703 -1.654248
11.947208 80.691116 -1.669117
11.951908 80.614426 -1.6053129
11.939666 80.556992 -1.635259
11.828876 80.532303 -1.633131
11.805816 80.599319 -1.615636
11.898708 80.506821 -1.629907
11.905872 80.61586 -1.724865
11.9029 80.680283 -1.663767
11.755981 80.507736 -1.580929
11.915756 80.85054 -1.654066
11.908558 80.922287 -1.674351
11.916282 80.804092 -1.628044
11.887344 80.870285 -1.681766
11.842777 80.93428 -1.7526259
11.892902 80.98082 -1.7532851
11.893562 81.070755 -1.780535
11.761257 81.072556 -1.886004
11.757076 81.015457 -1.8082629
11.740017 80.949478 -1.781288
11.762725 80.882065 -1.746227
11.981781 80.828384 -1.651395
11.703602 81.001266 -1.780539
11.973365 80.908096 -1.667221
11.712612 80.849808 -1.715022
11.982372 81.04924 -1.759056
11.817657 80.942245 -1.784642
11.836933 80.890152 -1.689038
11.82624 80.827469 -1.664533
12.002918 80.976974 -1.7094131
11.833835 81.025406 -1.789091
12.131904 80.697617 -1.604068
12.138477 80.754471 -1.6151119
12.259029 80.57637 -1.6449521
12.264759 80.735214 -1.640203
12.026748 80.530258 -1.6312031
12.117244 80.63884 -1.6653661
12.218979 80.743301 -1.609964
12.213379 80.614029 -1.645565
12.299404 80.732559 -1.604808
12.043441 80.619736 -1.716086
12.156288 80.770309 -1.644479
12.30479 80.538895 -1.6443371
12.046066 80.722092 -1.608112
12.141575 80.633896 -1.649417
12.194713 80.528793 -1.7874449
12.084148 80.784103 -1.616966
12.154308 80.513382 -1.598653
12.310226 80.654343 -1.595275
12.020446 80.5811 -1.602981
12.217712 80.673599 -1.600018
12.109138 80.561081 -1.598555
12.226669 80.862656 -1.630246
12.196785 80.918442 -1.691269
12.033157 80.816269 -1.618405
12.048641 80.897934 -1.646619
12.059055 80.984879 -1.701288
12.196575 80.971786 -1.680598
12.19366 81.055893 -1.725943
12.169155 80.89296 -1.681661
12.1679 80.970139 -1.664178
12.292865 80.950363 -1.654866
12.283126 80.988022 -1.650188
12.287517 80.870865 -1.694321
12.252361 80.809738 -1.631987
12.151027 81.048599 -1.730091
12.111042 81.008713 -1.689649
12.024067 81.069168 -1.7651089
12.098701 80.95076 -1.673896
12.108005 80.854477 -1.63951
12.294708 81.0392 -1.693699
10.620735 81.543686 -1.918219
10.481628 81.724197 -1.921682
10.11391 81.290543 -1.9452029
10.034923 81.190384 -1.802413
10.003109 81.388199 -1.749269
10.066906 81.148758 -1.806152
10.086158 81.227737 -1.777998
10.041114 81.277481 -1.776531
10.03891 81.328476 -1.750137
10.156242 81.141739 -1.781371
10.159164 81.281998 -1.730273
10.140072 81.340103 -1.727937
9.8719883 81.337814 -1.766387
10.114242 81.394394 -1.726409
10.134704 81.180435 -1.778898
10.104606 81.11293 -1.807972
10.046146 81.385727 -1.79813
9.9832678 81.1259 -1.780491
9.9684334 81.388474 -1.770788
9.9516983 81.272446 -1.798288
9.9008923 81.156998 -1.730478
9.9023094 81.219376 -1.772007
9.8727474 81.10701 -1.791868
9.9243889 81.326859 -1.807299
9.9191513 81.435837 -1.770149
9.9082184 81.52861 -1.828581
10.063171 81.503189 -1.7233551
10.071182 81.439163 -1.726899
9.9816704 81.455338 -1.746987
9.9604912 81.522537 -1.744707
9.9502249 81.595169 -1.74137
9.9117699 81.653458 -1.74086
10.148266 81.468887 -1.776767
10.135273 81.535782 -1.773859
10.126072 81.604507 -1.770573
10.099476 81.664047 -1.769197
10.02692 81.619827 -1.718691
10.034435 81.555801 -1.722231
9.8813362 81.59288 -1.7897069
9.8801193 81.489761 -1.767831
10.365448 81.147964 -1.751536
10.348198 81.210861 -1.748953
10.369613 81.302505 -1.791882
10.346538 81.359695 -1.789969
10.227306 81.289047 -1.781306
10.400783 81.132187 -1.784863
10.441612 81.269547 -1.763199
10.444095 81.219101 -1.7997611
10.196075 81.34639 -1.780301
10.195781 81.233749 -1.730588
10.218738 81.17775 -1.73252
10.39637 81.24733 -1.793384
10.23846 81.119797 -1.734858
10.426078 81.315018 -1.760069
10.447025 81.135239 -1.796802
10.303966 81.330887 -1.744958
10.320747 81.26796 -1.747537
10.276443 81.166977 -1.7848541
10.27346 81.386215 -1.743932
10.281482 81.282547 -1.8427581
10.251762 81.227982 -1.783079
10.223579 81.627914 -1.748202
10.257145 81.449234 -1.741357
10.204178 81.564041 -1.738536
10.371414 81.554459 -1.802896
10.353733 81.434586 -1.754905
10.411754 81.452713 -1.895365
10.422485 81.547379 -1.73201
10.391563 81.60582 -1.7308429
10.251377 81.590286 -1.749231
10.248508 81.671677 -1.797909
10.185047 81.625259 -1.736353
10.175567 81.4095 -1.778151
10.439552 81.481552 -1.73465
10.30397 81.51329 -1.751808
10.220043 81.500931 -1.7411079
10.318569 81.587418 -1.804328
10.456878 81.415726 -1.737294
10.602718 81.385788 -1.77949
10.548946 81.396286 -1.742849
10.597389 81.288742 -1.746294
10.48846 81.357529 -1.738469
10.517032 81.382004 -1.768968
10.702606 81.209091 -1.7839299
10.70671 81.349014 -1.777353
10.506267 81.291794 -1.741119
10.51736 81.222214 -1.744511
10.609893 81.228043 -1.749478
10.532211 81.16185 -1.765695
10.669834 81.308823 -1.782787
10.616848 81.14772 -1.840289
10.662025 81.248459 -1.78312
10.643203 81.179459 -1.750159
10.752037 81.396988 -1.759879
10.779041 81.341385 -1.761284
10.751835 81.152969 -1.786118
10.666412 81.124924 -1.752093
10.578605 81.104385 -1.747246
10.584423 81.183578 -1.742004
10.567836 81.254959 -1.772825
10.578243 81.345444 -1.743946
10.51046 81.600113 -1.717422
10.767101 81.555679 -1.791901
10.644279 81.41301 -1.776026
10.675716 81.566208 -1.755273
10.680969 81.639297 -1.750275
10.73796 81.60759 -1.790839
10.712551 81.516159 -1.755473
10.728706 81.454636 -1.758076
10.501293 81.504074 -1.739405
10.523292 81.449173 -1.741335
10.617508 81.624008 -1.795274
10.55899 81.653091 -1.8333451
10.543895 81.557541 -1.769395
10.602131 81.490494 -1.771299
10.479503 81.559036 -1.737475
10.94873 81.109299 -1.807602
11.066311 81.112442 -1.768123
11.061508 81.184464 -1.763906
11.05009 81.252457 -1.760457
11.066929 81.325241 -1.752974
10.868282 81.339035 -1.798263
10.881191 81.277542 -1.801443
10.882202 81.115768 -1.767713
10.986377 81.365067 -1.758145
11.047821 81.380447 -1.750618
10.964168 81.250534 -1.895658
10.941967 81.17482 -1.80357
10.997142 81.356552 -1.788327
10.828571 81.10878 -1.786544
10.784771 81.242813 -1.782168
10.826763 81.226456 -1.764897
11.014663 81.306778 -1.759681
10.788978 81.275986 -1.764694
10.904636 81.222092 -1.803354
11.009578 81.197098 -1.764856
10.824592 81.382675 -1.798892
11.025737 81.127518 -1.7678
10.936664 81.146133 -1.831249
10.831108 81.497726 -1.8107899
10.805206 81.440323 -1.79656
10.782581 81.496017 -1.794652
11.054741 81.593796 -1.806585
11.01522 81.427597 -1.7499779
10.99995 81.484909 -1.747195
10.992885 81.562637 -1.874931
11.013157 81.633987 -1.805272
10.805416 81.636093 -1.779779
11.046356 81.546555 -1.878749
10.949402 81.587662 -1.7442009
10.913261 81.546249 -1.752408
10.915111 81.476364 -1.784525
10.904968 81.423782 -1.812663
10.866111 81.462601 -1.8450249
10.853256 81.551834 -1.78318
10.967697 81.532272 -1.746554
11.686786 81.246567 -1.914189
11.656437 81.658066 -1.955626
11.911708 81.657913 -1.9371769
11.713768 81.27684 -1.9170589
12.040527 81.590591 -1.9202681
11.353912 81.458176 -1.9237731
11.62001 81.298294 -1.952404
12.008697 81.335739 -1.9656481
11.99617 81.393997 -1.922487
11.224838 81.132645 -1.905637
11.18996 81.292709 -1.8191
11.209743 81.360794 -1.7559
11.313701 81.149307 -1.9097019
11.309047 81.32637 -1.769909
11.299926 81.200607 -1.823052
11.332916 81.270615 -1.771716
11.141742 81.336563 -1.8168499
11.152263 81.108932 -1.761548
11.393394 81.168594 -1.873999
11.365623 81.347458 -1.823781
11.372566 81.279922 -1.820706
11.367237 81.221024 -1.772284
11.248947 81.260788 -1.817486
11.381279 81.159256 -1.775334
11.295692 81.388199 -1.766865
11.110344 81.360245 -1.816456
11.148327 81.229019 -1.905017
11.109955 81.104691 -1.9049
11.105781 81.214951 -1.757689
11.093059 81.274185 -1.754472
11.164337 81.494278 -1.7517641
11.113144 81.486771 -1.909481
11.08971 81.567123 -1.806479
11.142006 81.561081 -1.749697
11.388847 81.517349 -1.773629
11.293415 81.505753 -1.885112
11.172905 81.419907 -1.755252
11.272262 81.444046 -1.765061
11.252491 81.501938 -1.762846
11.256195 81.596848 -1.8547471
11.309211 81.575272 -1.8297909
11.370628 81.583572 -1.771034
11.393387 81.443375 -1.777721
11.232944 81.55986 -1.760633
11.556045 81.219315 -1.793331
11.572239 81.290298 -1.7712981
11.557632 81.354691 -1.768198
11.698925 81.387741 -1.783856
11.455459 81.32457 -1.780304
11.412574 81.107834 -1.776317
11.507003 81.128952 -1.831686
11.669101 81.162979 -1.850464
11.658458 81.365799 -1.81358
11.472534 81.10231 -1.792611
11.501087 81.196274 -1.78476
11.468776 81.151627 -1.832285
11.44067 81.20546 -1.825762
11.485077 81.264328 -1.781783
11.595188 81.34642 -1.909031
11.513485 81.312302 -1.788918
11.590538 81.22789 -1.774009
11.609081 81.165512 -1.776722
11.586151 81.117661 -1.799736
11.42258 81.38295 -1.779199
11.400657 81.246933 -1.823187
11.456669 81.586868 -1.76094
11.553459 81.484024 -1.808701
11.585941 81.553207 -1.7772501
11.582012 81.409775 -1.869746
11.448719 81.483475 -1.863432
11.529483 81.411148 -1.766675
11.680565 81.522049 -1.807216
11.647655 81.460556 -1.78105
11.515361 81.475571 -1.763582
11.50497 81.541977 -1.7601
11.628738 81.501602 -1.778529
11.601505 81.610855 -1.8034379
11.821338 81.107376 -1.783615
11.930065 81.297501 -1.780646
11.925171 81.368515 -1.776384
11.718216 81.133041 -1.849692
11.857441 81.172104 -1.819647
11.988418 81.205826 -1.819719
11.990261 81.223923 -1.884564
11.789776 81.402298 -1.7686861
11.872203 81.283829 -1.820997
11.937359 81.153152 -1.789575
11.808395 81.256943 -1.775779
11.911312 81.212143 -1.787659
11.951294 81.335526 -1.800763
11.949962 81.258896 -1.805714
11.870697 81.376328 -1.832844
11.78508 81.321762 -1.773702
11.752571 81.239456 -1.821012
11.804359 81.176224 -1.7808
11.783893 81.141434 -1.841379
11.885231 81.492477 -1.771396
11.881183 81.56337 -1.767145
11.710445 81.480667 -1.809891
11.838707 81.450089 -1.9041311
11.963333 81.509048 -1.811762
11.932018 81.554123 -1.808453
11.903358 81.429489 -1.774085
11.770488 81.46907 -1.7662441
11.744491 81.531998 -1.764537
12.195785 81.204025 -1.808691
12.232074 81.286179 -1.763335
12.20425 81.14119 -1.796165
12.112816 81.105301 -1.779966
12.296363 81.139236 -1.757625
12.30434 81.24913 -1.7604131
12.130951 81.243515 -1.81116
12.014751 81.125076 -1.785599
12.123104 81.312973 -1.806356
12.076431 81.175034 -1.823712
12.019889 81.271255 -1.836786
12.083866 81.348068 -1.8231111
12.054237 81.236099 -1.8404551
12.269359 81.298996 -1.840662
12.040699 81.114487 -1.808156
12.139583 81.402939 -1.800885
12.246273 81.373123 -1.7571861
12.153843 81.177078 -1.808632
12.268844 81.241776 -1.800144
12.254547 81.121567 -1.7513
12.205761 81.34761 -1.8387229
12.155719 81.125443 -1.7866811
12.191723 81.540176 -1.815398
12.216976 81.485306 -1.820068
12.281639 81.424179 -1.850816
12.158962 81.449753 -1.885716
12.281643 81.471695 -1.748868
12.25851 81.536606 -1.746712
12.015693 81.457474 -1.813881
12.029991 81.5439 -1.799857
12.128833 81.550003 -1.792901
12.11676 81.466629 -1.7987911
12.06023 81.447861 -1.796783
13.182876 79.82869 -1.592484
12.615486 79.93663 -1.628582
12.362636 80.176987 -1.6302249
12.342064 80.08812 -1.627805
12.402824 80.058792 -1.625701
12.458061 80.076645 -1.630115
12.39698 80.117905 -1.631519
12.342037 80.037582 -1.692853
12.548511 80.180069 -1.747686
12.40945 79.985489 -1.649039
12.557384 79.979324 -1.6296591
12.522525 80.037888 -1.62837
12.510891 80.184738 -1.765702
12.453998 80.02269 -1.62475
12.607776 79.994522 -1.6935689
12.613773 80.04689 -1.599555
12.323673 79.994888 -1.576851
12.358089 79.937393 -1.578283
12.514209 80.134109 -1.600087
12.567203 80.092667 -1.599471
12.464603 80.178055 -1.60035
12.545253 80.371689 -1.753546
12.54285 80.290176 -1.645485
12.434917 80.340195 -1.7770081
12.376629 80.328629 -1.65491
12.380386 80.453049 -1.6451319
12.614792 80.195328 -1.663584
12.446655 80.433823 -1.774913
12.320667 80.366531 -1.653824
12.502853 80.331223 -1.645298
12.466205 80.374771 -1.644701
12.537738 80.259872 -1.652014
12.570175 80.239822 -1.647302
12.440502 80.300095 -1.653904
12.588932 80.445023 -1.590358
12.372379 80.271011 -1.600171
12.323166 80.315598 -1.6004291
12.536327 80.488541 -1.5910029
12.415126 80.222183 -1.600612
12.720352 80.167709 -1.651598
12.813453 80.008865 -1.643507
12.678615 80.11937 -1.6446019
12.657219 80.174088 -1.641973
12.89862 79.932083 -1.643448
12.747738 80.100815 -1.641109
12.767284 79.971298 -1.69469
12.8167 80.10231 -1.65438
12.897861 79.988235 -1.683121
12.729244 80.029312 -1.6816339
12.878959 80.074387 -1.653954
12.866977 79.978958 -1.642047
12.704067 79.953659 -1.60007
12.867584 80.161819 -1.590574
12.917785 80.117599 -1.590259
12.676765 80.012802 -1.597881
12.84362 80.317856 -1.622273
12.840511 80.425034 -1.63653
12.877067 80.470322 -1.610826
12.915638 80.336441 -1.645081
12.889408 80.273026 -1.622299
12.755729 80.410324 -1.6218539
12.700447 80.44902 -1.62291
12.681183 80.224106 -1.6819201
12.633007 80.330673 -1.746009
12.81438 80.37413 -1.620433
12.623336 80.247055 -1.681108
12.799465 80.298782 -1.599461
12.631706 80.395126 -1.590742
12.760959 80.246475 -1.591888
12.668216 80.461105 -1.598403
12.67794 80.34761 -1.590781
12.807644 80.199509 -1.591923
12.76654 80.341782 -1.5984761
12.841983 80.263199 -1.599201
12.727619 80.302536 -1.590474
12.714714 80.370499 -1.599974
12.340892 80.494736 -1.644938
12.504936 80.701279 -1.648965
12.498367 80.765793 -1.617117
12.604896 80.62529 -1.646982
12.616207 80.707047 -1.612695
12.43621 80.793381 -1.619717
12.415496 80.737778 -1.6508501
12.413513 80.592911 -1.77201
12.324516 80.787979 -1.6282181
12.567108 80.743027 -1.613724
12.558162 80.66539 -1.647586
12.41798 80.516434 -1.668694
12.363491 80.710831 -1.601702
12.411365 80.677872 -1.60065
12.45932 80.645126 -1.599594
12.444843 80.584946 -1.590914
12.581138 80.531845 -1.599299
12.483829 80.532303 -1.591646
12.510563 80.614975 -1.598123
12.382541 80.622696 -1.592582
12.371883 81.098648 -1.706799
12.605785 80.83934 -1.641721
12.366783 81.025314 -1.658259
12.488502 81.086685 -1.686425
12.460067 81.011551 -1.6522681
12.554695 80.841904 -1.718987
12.374744 80.94603 -1.630399
12.54253 80.924667 -1.630029
12.542682 81.073959 -1.7541161
12.40776 80.865311 -1.633559
12.482563 80.949844 -1.620289
12.310985 80.840225 -1.695191
12.431736 80.919724 -1.628015
12.426609 81.030258 -1.652424
12.363727 80.821762 -1.692849
12.459415 80.873184 -1.629436
12.512859 81.034195 -1.679922
12.49657 80.838547 -1.718176
12.530426 80.903641 -1.6199369
12.521305 80.969193 -1.653212
12.608795 81.070389 -1.6468329
12.656559 80.514725 -1.6384391
12.688881 80.538895 -1.6469409
12.75988 80.761581 -1.639388
12.741134 80.66127 -1.6901489
12.744507 80.586685 -1.611964
12.655018 80.587662 -1.6459889
12.665386 80.67131 -1.611663
12.658996 80.767654 -1.77132
12.875213 80.737259 -1.610289
12.714656 80.635788 -1.610628
12.831539 80.780502 -1.610307
12.828819 80.630539 -1.688614
12.700298 80.794601 -1.639779
12.617004 80.569473 -1.6432821
12.857082 80.602249 -1.69215
12.824154 80.502731 -1.612262
12.861423 80.533157 -1.662019
12.623031 80.495193 -1.599059
12.787052 80.923569 -1.634365
12.737358 80.882645 -1.60753
12.709041 80.938889 -1.639122
12.634266 80.956894 -1.643468
12.912723 81.025681 -1.626389
12.902202 81.092911 -1.6717809
12.742912 80.811111 -1.612632
12.843525 80.87999 -1.612716
12.826316 80.962326 -1.66754
12.864303 81.013748 -1.660807
12.767418 81.051773 -1.635757
12.676895 81.088974 -1.6689399
12.684341 80.905991 -1.678654
12.730167 81.003983 -1.675487
12.814129 81.020157 -1.634557
12.795219 81.097427 -1.679131
12.730568 81.090408 -1.6356519
12.635635 80.893906 -1.613561
12.880302 80.822861 -1.601828
12.822223 80.861191 -1.603263
13.18877 80.095535 -1.696329
12.930488 80.060013 -1.652221
13.034053 80.144363 -1.621642
13.149063 80.078445 -1.648098
13.181499 80.029099 -1.649452
12.959617 79.961319 -1.682863
13.0933 80.109634 -1.620206
13.207992 80.158188 -1.610826
13.135963 80.048477 -1.6473759
13.105285 79.989151 -1.602314
13.20446 79.930923 -1.6000921
13.036659 79.963089 -1.592762
13.164089 79.967453 -1.599955
13.012046 80.025192 -1.590314
13.080578 80.038559 -1.60009
12.968113 80.073563 -1.589941
13.068 79.905685 -1.594519
12.939701 80.445175 -1.608199
12.973465 80.399185 -1.609135
13.118442 80.386124 -1.661726
12.95063 80.345139 -1.639232
12.953598 80.290909 -1.6456439
13.149845 80.358444 -1.664781
13.038116 80.259171 -1.756806
13.138343 80.45372 -1.609145
12.994392 80.193161 -1.620894
13.007396 80.353287 -1.610072
13.014194 80.426346 -1.6622601
13.094539 80.21492 -1.6145509
13.197418 80.449234 -1.608644
13.041481 80.307541 -1.611008
12.932132 80.468185 -1.652186
12.936569 80.413345 -1.652001
13.213668 80.261185 -1.6644911
13.219185 80.382736 -1.608927
13.151245 80.186417 -1.61269
13.163585 80.295578 -1.662192
13.146404 80.486465 -1.609419
13.146892 80.411148 -1.666495
12.939861 80.202377 -1.597014
13.352153 80.102951 -1.64408
13.344761 79.976547 -1.61492
13.242729 80.113235 -1.6117491
13.261921 80.056137 -1.614668
13.263759 79.952164 -1.6462049
13.300148 80.013809 -1.615193
13.300522 80.067276 -1.652743
13.328975 80.121567 -1.755401
13.254135 79.902145 -1.598976
13.272842 80.240128 -1.6637141
13.245289 80.409866 -1.608245
13.24884 80.338852 -1.610312
13.308483 80.211624 -1.6661921
13.297634 80.383286 -1.750245
13.336559 80.273788 -1.609228
13.331207 80.438461 -1.596969
13.285396 80.483536 -1.597003
13.35757 80.379868 -1.599076
13.160377 80.70491 -1.622504
13.170578 80.625504 -1.606407
12.926895 80.625809 -1.611142
13.059452 80.77037 -1.62515
13.06559 80.712204 -1.60806
13.11177 80.535416 -1.6083111
13.054748 80.522964 -1.60978
12.971664 80.627274 -1.641275
13.223243 80.582504 -1.605576
13.013092 80.557877 -1.610094
13.010269 80.610977 -1.609857
13.206119 80.669022 -1.621789
12.961319 80.575058 -1.68872
13.00658 80.751572 -1.6095769
13.108265 80.736374 -1.624032
13.018505 80.685349 -1.601415
13.132229 80.60878 -1.598875
12.956772 80.720749 -1.603213
13.076984 80.648026 -1.599968
13.174389 80.560837 -1.599203
12.935131 80.782639 -1.600745
13.061123 80.913864 -1.678478
13.07259 80.973129 -1.632308
13.059002 81.048843 -1.663579
13.170158 81.049942 -1.674951
13.141674 80.93367 -1.615853
13.138092 80.901474 -1.64974
13.222728 80.864487 -1.615142
12.99712 81.038742 -1.673367
13.038452 80.987259 -1.619606
13.017227 80.809189 -1.625452
13.198143 80.910812 -1.6133161
13.210693 81.069199 -1.632913
13.209049 81.00209 -1.6561199
13.091648 80.961502 -1.6175129
13.088749 81.067947 -1.64134
13.148376 80.835403 -1.749146
12.965332 80.841324 -1.626974
12.926571 80.882828 -1.626865
12.949577 80.953201 -1.679698
12.985286 81.01326 -1.621694
13.340683 80.560257 -1.620043
13.372009 80.63652 -1.635151
13.348919 80.692123 -1.670328
13.276016 80.539749 -1.6047421
13.242313 80.626297 -1.622297
13.234352 80.743484 -1.67171
13.301071 80.600235 -1.619946
13.318298 80.655869 -1.636217
13.298263 80.726059 -1.6689169
13.332195 80.499466 -1.603555
13.229843 80.522049 -1.598104
13.329384 81.05809 -1.629374
13.310909 80.849869 -1.624254
13.294933 80.799332 -1.612638
13.392791 80.907089 -1.649703
13.285484 81.041092 -1.629505
13.282398 80.978226 -1.6525739
13.27647 80.889023 -1.625832
13.254211 80.83342 -1.6130069
13.41317 80.993729 -1.754549
13.38705 81.030655 -1.623216
13.339206 80.943649 -1.650947
13.350822 80.863632 -1.6224459
13.354248 80.808426 -1.624174
12.402443 81.499405 -1.915395
12.4734 81.407211 -1.931656
12.358589 81.571945 -1.9338731
12.522655 81.132309 -1.682127
12.538028 81.210648 -1.759752
12.527763 81.260117 -1.788977
12.598758 81.327469 -1.807161
12.609161 81.120468 -1.709654
12.332611 81.348343 -1.801182
12.4431 81.221634 -1.775515
12.419651 81.345932 -1.817984
12.409824 81.296616 -1.847629
12.407573 81.230606 -1.754217
12.426021 81.405014 -1.836266
12.346428 81.172989 -1.762028
12.462116 81.281021 -1.795692
12.477817 81.354019 -1.839617
12.355842 81.231461 -1.7930191
12.365009 81.294907 -1.802286
12.581436 81.22142 -1.75392
12.539276 81.272873 -1.7889301
12.54562 81.327805 -1.829073
12.576114 81.384567 -1.822582
12.565441 81.559189 -1.864493
12.45618 81.527176 -1.844546
12.471206 81.475998 -1.8475339
12.358486 81.436569 -1.793201
12.36425 81.512314 -1.787654
12.523533 81.505234 -1.819149
12.32917 81.563736 -1.786961
12.522247 81.428757 -1.824
12.598182 81.434921 -1.798665
12.615848 81.524155 -1.792017
12.793945 81.263962 -1.7376519
12.802097 81.338974 -1.765142
12.632648 81.37532 -1.799782
12.755508 81.19899 -1.689492
12.865978 81.37117 -1.774053
12.882648 81.300705 -1.71833
12.845535 81.21553 -1.7176009
12.722141 81.153763 -1.852155
12.715568 81.19725 -1.694065
12.634475 81.175888 -1.687746
12.72924 81.352005 -1.794252
12.638618 81.300522 -1.809868
12.667743 81.245926 -1.741508
12.901909 81.166214 -1.654433
12.858467 81.146927 -1.684525
12.837742 81.178207 -1.679904
12.914783 81.264145 -1.707358
12.674095 81.163101 -1.686
12.72726 81.261612 -1.7337019
12.753402 81.275742 -1.7276289
12.747554 81.386032 -1.778704
12.910778 81.398819 -1.7791719
12.652778 81.477524 -1.856132
12.663208 81.5746 -1.8447959
12.786926 81.438736 -1.809965
12.699958 81.43541 -1.779163
12.783977 81.495926 -1.843418
12.704174 81.514999 -1.773996
12.871647 81.431534 -1.81645
12.887687 81.478561 -1.834051
13.170475 81.230026 -1.655632
13.221946 81.120956 -1.652364
13.213356 81.17659 -1.662378
13.19738 81.269455 -1.676643
13.193306 81.394394 -1.702669
13.03413 81.109726 -1.642581
12.999038 81.164719 -1.647002
13.015373 81.225296 -1.7020611
13.01984 81.318008 -1.7013921
13.02061 81.377731 -1.745592
12.968414 81.365616 -1.7524149
12.975616 81.282211 -1.697868
13.156311 81.303543 -1.675871
13.139728 81.381851 -1.711543
12.961128 81.212357 -1.665964
12.939018 81.126511 -1.648121
13.042274 81.215439 -1.67203
13.099373 81.367416 -1.719378
13.038948 81.303513 -1.687602
13.16539 81.1353 -1.6558
13.102848 81.131973 -1.775748
13.132209 81.180588 -1.698033
13.090999 81.227554 -1.661777
13.088573 81.310867 -1.6811219
12.92749 81.310074 -1.710923
12.962684 81.518906 -1.865406
12.967724 81.472427 -1.831316
12.959079 81.423691 -1.78617
13.057777 81.473709 -1.806213
13.19416 81.453812 -1.762006
13.129654 81.420609 -1.798345
13.123085 81.485245 -1.817018
13.17826 81.521194 -1.793102
13.005737 81.439102 -1.795312
13.366253 81.12056 -1.685807
13.386902 81.20488 -1.642869
13.239063 81.364822 -1.689229
13.351844 81.261826 -1.6417921
13.266849 81.287521 -1.668732
13.412883 81.345688 -1.666568
13.354034 81.342331 -1.686049
13.263603 81.228653 -1.6394809
13.294983 81.221939 -1.64722
13.3106 81.270279 -1.702053
13.336128 81.397781 -1.675724
13.42567 81.264542 -1.726759
13.292545 81.165512 -1.641203
13.301151 81.493393 -1.7612621
13.417949 81.41832 -1.665266
13.360672 81.451797 -1.716302
13.25999 81.459427 -1.776104
