# .PCD v0.7 - Point Cloud Data file format
VERSION 0.7
FIELDS x y z
SIZE 4 4 4
TYPE F F F
COUNT 1 1 1
WIDTH 1568
HEIGHT 1
VIEWPOINT 0 0 0 1 0 0 0
POINTS 1568
DATA ascii
-2.4833241 9.681015 -1.659608
-2.4281051 9.6657257 -1.659809
-2.461611 9.6040649 -1.672793
-2.4152491 9.8491974 -1.7536989
-2.444186 9.7847443 -1.793547
-2.433306 9.7257843 -1.668519
-2.4588571 9.896225 -1.6537991
-2.6521299 10.069717 -1.6587451
-2.6214969 9.9952087 -1.646279
-2.6486001 9.925354 -1.678105
-2.443795 9.9460449 -1.647313
-2.421999 10.030548 -1.6574529
-2.597815 10.043015 -1.660158
-2.5632041 9.9733887 -1.647141
-2.598109 9.8905334 -1.656487
-2.4661219 10.160675 -1.653983
-2.476521 10.056671 -1.656039
-2.5377829 10.13562 -1.65716
-2.537493 10.047775 -1.6583019
-2.535059 9.933075 -1.6536289
-2.5294759 9.8833466 -1.6560071
-2.6051869 10.154434 -1.656523
-2.5003681 9.9792633 -1.645286
-2.6675839 9.8900452 -1.65766
-2.382185 9.9445038 -1.6462359
-2.39902 10.138367 -1.654969
-2.166909 6.4956508 -1.634136
-2.269053 6.358994 -1.6789221
-2.28756 6.4190831 -1.64062
-2.236414 6.2513728 -1.635662
-2.218699 6.412643 -1.639945
-2.2089159 6.3649902 -1.660728
-2.111742 6.2633672 -1.717467
-2.1437509 6.3500519 -1.660971
-2.1712 6.2287598 -1.636521
-2.0991919 6.4893341 -1.633538
-2.064177 6.4295201 -1.647441
-2.083765 6.3807678 -1.640305
-2.10219 6.22998 -1.635308
-2.1504059 6.4024959 -1.639613
-2.3321359 6.3560181 -1.746657
-1.976231 6.3493652 -1.69537
-1.944247 6.3814092 -1.6379369
-1.763136 6.4415278 -1.632283
-1.809954 6.3435059 -1.638983
-1.955851 6.3068848 -1.677635
-1.892697 6.299469 -1.677152
-2.0031991 6.4210968 -1.646944
-1.963169 6.481338 -1.631999
-2.035624 6.215713 -1.6354769
-2.0572569 6.2871399 -1.746852
-2.0137141 6.382935 -1.63895
-2.0343709 6.463531 -1.634668
-1.829335 6.4585109 -1.631843
-1.82242 6.385406 -1.646608
-1.856707 6.3286438 -1.6562819
-1.894341 6.4836268 -1.630712
-1.876368 6.3682709 -1.637948
-1.626 6.4438319 -1.630057
-1.464806 6.322144 -1.63564
-1.627318 6.3982701 -1.748668
-1.741421 6.3347931 -1.638654
-1.48761 6.4589691 -1.626799
-1.604267 6.3180852 -1.637997
-1.696339 6.4287262 -1.632378
-1.671418 6.3381958 -1.637303
-1.533839 6.3259282 -1.636307
-1.5601521 6.423584 -1.630844
-1.515457 6.4688258 -1.74142
-1.451775 6.3667908 -1.641361
-1.395892 6.405746 -1.684175
-1.393225 6.342361 -1.63293
-1.199097 6.3932648 -1.652382
-1.19252 6.4828801 -1.636238
-1.351321 6.459259 -1.6249239
-1.252974 6.423264 -1.650555
-1.225935 6.3574681 -1.632017
-1.290938 6.388443 -1.630195
-1.419909 6.4550319 -1.626206
-1.360827 7.550705 -1.962839
-1.1653219 7.5476842 -1.91983
-2.089426 6.5531769 -1.695183
-2.1759231 6.5971222 -1.828709
-2.2109189 6.7278442 -1.66786
-2.1418991 6.6864619 -1.632489
-2.113596 6.6009369 -1.658095
-2.3317571 6.6746368 -1.6526901
-2.3150539 6.5691991 -1.7501971
-2.345757 6.720551 -1.633038
-2.3446641 6.774826 -1.8294719
-2.076952 6.653213 -1.634241
-2.233994 6.5061488 -1.634388
-2.2123799 6.680511 -1.63415
-2.277653 6.7102661 -1.632741
-2.3010409 6.5168762 -1.6346411
-2.2911 6.6328282 -1.659272
-2.2493041 6.773972 -1.712231
-2.221024 6.874969 -1.6505179
-2.2330711 6.9188542 -1.657311
-2.2294829 6.970901 -1.6927561
-2.2311289 7.0662231 -1.635898
-2.3507161 7.0003662 -1.694714
-2.3442791 6.8812709 -1.652638
-2.2101309 7.0225072 -1.737859
-2.1814849 6.9579468 -1.692167
-2.1639121 6.850708 -1.6515909
-2.104269 6.8383331 -1.6515011
-2.068383 6.9798431 -1.756246
-2.0932491 7.0518651 -1.635005
-2.3008709 7.0678411 -1.636856
-2.2788069 6.9803009 -1.6938291
-2.280535 6.8877411 -1.6506079
-2.1603611 7.0727539 -1.634261
-2.158972 7.0196991 -1.773569
-2.1314931 6.906601 -1.656165
-1.765251 6.5377498 -1.651081
-2.0011711 6.6991582 -1.629171
-1.8663009 6.669373 -1.629607
-1.876515 6.5744171 -1.6502661
-1.801453 6.6330719 -1.631701
-1.793105 6.7051392 -1.699904
-1.988701 6.7668762 -1.664914
-1.8205 6.5579381 -1.650472
-1.8324341 6.7294922 -1.699024
-1.937657 6.65451 -1.631946
-1.9359781 6.5755768 -1.6516761
-1.995478 6.5769501 -1.6530859
-1.863049 6.8026891 -1.649985
-2.0382659 6.5224152 -1.817939
-2.0532 6.586288 -1.6536911
-1.80251 6.7952881 -1.64951
-2.0146351 6.6404419 -1.672843
-2.0447891 6.7497859 -1.756459
-1.993145 7.088623 -1.655026
-2.025526 7.0351558 -1.63541
-2.039881 6.9125819 -1.691368
-2.0445881 6.8261871 -1.651412
-1.7569489 6.9622192 -1.760059
-1.8692859 7.089386 -1.652487
-1.784886 7.1147461 -1.679437
-1.885592 7.0380712 -1.6331609
-1.895876 6.982986 -1.7165
-1.867979 6.8713531 -1.6548229
-1.812434 7.0626831 -1.653944
-1.820021 7.0022888 -1.635267
-1.8428251 6.9529109 -1.716462
-1.834807 6.8334808 -1.65502
-1.921295 6.822021 -1.649297
-1.935473 6.8689728 -1.656141
-1.92111 6.9238281 -1.751042
-1.98254 6.825943 -1.65016
-1.957234 7.022644 -1.635475
-1.931195 7.0888982 -1.653756
-2.0559089 7.0846858 -1.6566859
-1.973963 6.9187469 -1.7799799
-2.165329 7.1429749 -1.8248039
-2.162756 7.2446141 -1.698402
-2.210629 7.3336029 -1.699195
-2.271565 7.3937531 -1.6604511
-2.353951 7.1462402 -1.657203
-2.1101129 7.1239009 -1.654062
-2.088141 7.1815639 -1.750741
-2.1014099 7.2698822 -1.662053
-2.0992451 7.3629608 -1.659302
-2.3354321 7.3127589 -1.663209
-2.3274331 7.4108729 -1.660157
-2.2332399 7.1287842 -1.656216
-2.2168529 7.1760411 -1.681428
-2.1563699 7.1604772 -1.6817501
-2.1562121 7.2978058 -1.660543
-2.159611 7.3600769 -1.6610399
-2.2936039 7.1374049 -1.656709
-2.2825639 7.2406158 -1.743744
-2.2782631 7.295898 -1.663519
-2.221024 7.2792358 -1.663829
-2.1188149 7.41539 -1.719534
-2.2173901 7.3690491 -1.661558
-2.2186871 7.4806671 -1.658224
-2.242218 7.5996251 -1.634892
-2.2539661 7.724731 -1.721867
-2.0925491 7.6853328 -1.625361
-2.31234 7.596725 -1.636252
-2.0594499 7.6515198 -1.7173049
-2.3362539 7.5090942 -1.657995
-2.1089101 7.5554051 -1.664307
-2.094769 7.484314 -1.655314
-2.3037651 7.701416 -1.738665
-2.1570909 7.4804382 -1.656965
-2.1769259 7.6294098 -1.735088
-2.1775739 7.5592961 -1.637284
-2.276289 7.5006261 -1.6575201
-2.295151 7.6328578 -1.665802
-1.979466 7.273087 -1.659081
-1.807108 7.2267909 -1.660022
-1.8102289 7.3221889 -1.656725
-1.869665 7.322144 -1.658051
-1.866158 7.2342219 -1.660507
-1.915434 7.177475 -1.695181
-1.924418 7.2457581 -1.660593
-1.862288 7.1721501 -1.716626
-2.04316 7.3466191 -1.659598
-2.0408161 7.269424 -1.660767
-2.017338 7.211731 -1.696143
-1.97299 7.1885529 -1.69701
-1.982855 7.3499298 -1.6578619
-1.753933 7.306839 -1.657024
-2.033078 7.1417542 -1.681236
-1.822481 7.3938899 -1.7033761
-1.846279 7.125092 -1.6795011
-1.926695 7.3339839 -1.65816
-1.942122 7.45192 -1.702862
-1.927649 7.555542 -1.660394
-1.9381469 7.6178589 -1.7131799
-1.933514 7.6708679 -1.728873
-1.965876 7.582108 -1.6321909
-1.855423 7.4512329 -1.653816
-1.8285511 7.566864 -1.631526
-1.793722 7.727829 -1.658002
-1.971808 7.4849548 -1.652797
-1.820294 7.6803741 -1.744602
-2.0362761 7.4688869 -1.6556261
-2.037756 7.5623779 -1.634909
-2.0275769 7.6938319 -1.734851
-1.76149 7.5437469 -1.632556
-1.796065 7.4405522 -1.653736
-1.911116 7.481689 -1.651932
-1.868811 7.5482178 -1.659893
-1.894163 7.602097 -1.629474
-1.742678 6.7841802 -1.649424
-1.743462 6.7067261 -1.697102
-1.456198 6.6212921 -1.627861
-1.651217 6.5135188 -1.65069
-1.6396281 6.6626592 -1.664282
-1.6497101 6.7501831 -1.660827
-1.732094 6.6325989 -1.6307271
-1.556174 6.7913508 -1.645293
-1.522005 6.6524658 -1.626107
-1.682101 6.7772059 -1.64895
-1.664614 6.6165471 -1.631116
-1.739064 6.5802922 -1.657577
-1.526814 6.5408168 -1.6450599
-1.704953 6.5411072 -1.649272
-1.589419 6.668045 -1.625715
-1.606106 6.570282 -1.65652
-1.57802 6.7459869 -1.744213
-1.616675 6.7978821 -1.6457649
-1.5893461 6.5251012 -1.6480761
-1.471373 6.5216222 -1.645674
-1.496994 6.7771759 -1.645596
-1.470173 6.5849152 -1.653322
-1.471053 7.009109 -1.630173
-1.6356111 6.9234471 -1.845719
-1.6045589 6.8358312 -1.653843
-1.561728 6.9262242 -1.73175
-1.6091239 7.0191188 -1.631053
-1.631354 7.0055242 -1.656361
-1.537159 7.087296 -1.678025
-1.7477061 7.0792851 -1.651118
-1.747149 7.0300899 -1.631936
-1.624117 7.0818181 -1.648582
-1.542698 6.9882202 -1.632821
-1.537573 6.898499 -1.827035
-1.672528 6.828567 -1.655516
-1.677071 7.0343928 -1.630644
-1.736863 6.8491821 -1.654689
-1.470364 7.1134801 -1.67449
-1.4590631 6.9229131 -1.833977
-1.449221 7.024384 -1.651013
-1.2607009 6.7947388 -1.669746
-1.246304 6.735291 -1.675537
-1.245943 6.64856 -1.6633739
-1.217448 6.5952449 -1.658354
-1.144917 6.6797638 -1.762975
-1.40853 6.7957921 -1.654539
-1.256108 6.5449219 -1.631761
-1.379721 6.7415919 -1.646979
-1.386938 6.6220398 -1.626891
-1.411291 6.526062 -1.64387
-1.1945519 6.5433502 -1.6723371
-1.187258 6.7182312 -1.7914129
-1.148472 6.571198 -1.76323
-1.1682971 6.7706599 -1.774865
-1.4410059 6.743576 -1.647837
-1.442332 6.690475 -1.728142
-1.342907 6.7842102 -1.654653
-1.264778 6.5805821 -1.6665061
-1.268189 6.6674652 -1.652238
-1.3197041 6.7319641 -1.646896
-1.320465 6.5952759 -1.628305
-1.2763391 7.0406041 -1.806381
-1.195334 7.0888982 -1.766891
-1.305374 6.9807591 -1.67485
-1.288851 6.8664088 -1.6635669
-1.352316 7.0649571 -1.667343
-1.339774 6.9246669 -1.635748
-1.260859 7.0844269 -1.76823
-1.213667 6.964005 -1.804671
-1.150864 6.8811488 -1.808051
-1.201763 6.8907471 -1.846011
-1.196068 6.83429 -1.7665991
-1.412335 6.8578191 -1.727145
-1.1528341 6.9916382 -1.799754
-1.402562 6.9985199 -1.630244
-1.4135081 7.0729222 -1.677512
-1.449223 7.2062678 -1.655125
-1.447262 7.2546391 -1.667503
-1.693764 7.3112178 -1.655293
-1.68462 7.236053 -1.656656
-1.61843 7.405807 -1.653892
-1.495589 7.4098969 -1.651381
-1.464398 7.2721858 -1.65447
-1.511 7.1967468 -1.657205
-1.635903 7.354279 -1.6997271
-1.639647 7.2845459 -1.656813
-1.626328 7.2253718 -1.656572
-1.52644 7.148849 -1.693202
-1.57882 7.1473689 -1.6952929
-1.584381 7.352066 -1.698007
-1.580977 7.2815251 -1.6558959
-1.570788 7.199203 -1.658087
-1.55274 7.2208562 -1.672076
-1.521605 7.2826228 -1.654573
-1.717688 7.1399689 -1.6759011
-1.7480429 7.2195892 -1.659537
-1.741459 7.4026179 -1.656405
-1.6797889 7.7097778 -1.657425
-1.740176 7.7011261 -1.659562
-1.751067 7.5896912 -1.661582
-1.5196 7.6234889 -1.662931
-1.550648 7.5710139 -1.627481
-1.553126 7.4313049 -1.650281
-1.606057 7.4529881 -1.712622
-1.510794 7.7052922 -1.6691149
-1.494997 7.6070099 -1.6919889
-1.487995 7.4972382 -1.632935
-1.4522099 7.6630712 -1.7673301
-1.5744539 7.514679 -1.657398
-1.62352 7.533905 -1.6315531
-1.644837 7.482574 -1.728184
-1.67589 7.595108 -1.748919
-1.6942919 7.5208588 -1.633586
-1.674557 7.4355011 -1.6520081
-1.565758 7.6925201 -1.65685
-1.445938 7.3375401 -1.657583
-1.215081 7.1686859 -1.773486
-1.260512 7.3634028 -1.763873
-1.402346 7.3038788 -1.663502
-1.397621 7.2535248 -1.6649621
-1.252598 7.4201808 -1.838299
-1.1596 7.3918762 -1.761009
-1.302496 7.2827611 -1.773625
-1.347374 7.3800349 -1.7700861
-1.329613 7.32724 -1.768415
-1.349057 7.230865 -1.765067
-1.396077 7.1649928 -1.658239
-1.17268 7.1543732 -1.770193
-1.191458 7.2507019 -1.815437
-1.188677 7.427536 -1.756591
-1.18413 7.5929408 -1.829754
-1.193453 7.643158 -1.8063101
-1.317667 7.6812592 -1.763792
-1.2731169 7.5062871 -1.859786
-1.2768919 7.5779719 -1.838717
-1.291523 7.6499181 -1.75868
-1.219952 7.7106481 -1.751828
-1.217463 7.500381 -1.853191
-1.142487 7.6528468 -1.8029079
-1.3782279 7.46524 -1.75573
-1.3631181 7.5934138 -1.765147
-1.432074 7.5648799 -1.768906
-1.380247 7.7082982 -1.850844
-1.036055 6.4907069 -1.769637
-1.055544 6.432693 -1.796273
-1.1394891 6.401916 -1.683998
-0.98353201 6.4702449 -1.791822
-0.71566802 6.475677 -1.830958
-0.78116602 6.5002589 -1.8337801
-0.95911998 6.5482178 -1.9205101
-0.28203201 7.3501892 -1.932525
-0.79600602 7.4471588 -1.92892
-0.38523901 7.4769292 -1.934819
-0.69699699 7.1106868 -1.923389
-1.053954 6.5940399 -1.915018
-1.044548 6.7813568 -1.783709
-1.0940861 6.519043 -1.767665
-1.072512 6.6201482 -1.81984
-1.133709 6.8110051 -1.768059
-1.052597 6.6833501 -1.763769
-0.90915501 6.5398102 -1.784369
-0.89484602 6.6200099 -1.754288
-0.96332598 6.569015 -1.760525
-0.96896201 6.631897 -1.843794
-0.83718902 6.5858459 -1.7791719
-1.009987 6.7392731 -1.755306
-0.94033998 6.791153 -1.74929
-1.0766031 6.7153168 -1.758546
-1.100888 6.8093719 -1.769819
-1.089716 6.9125061 -1.802503
-1.097079 6.99617 -1.79769
-0.96541101 6.8993678 -1.7584929
-0.971102 6.8430939 -1.777043
-0.91796899 7.073349 -1.783902
-0.92028803 6.987854 -1.74818
-1.0952801 7.112915 -1.7931809
-0.89844197 6.9427948 -1.753037
-0.86271697 7.0787349 -1.781842
-0.854267 7.0051122 -1.745728
-0.98900598 6.9470978 -1.752979
-0.97329199 7.0681462 -1.7859631
-0.83723098 6.9430389 -1.7521189
-1.030129 7.077621 -1.8377939
-1.125035 7.044312 -1.815246
-0.899674 6.8852391 -1.772257
-0.871979 6.8353882 -1.744068
-1.032711 6.8562012 -1.763949
-1.036629 7.0242462 -1.792776
-1.058031 6.906601 -1.757779
-0.53409201 6.6013341 -1.80516
-0.54663301 6.806107 -1.775134
-0.65128398 6.5604248 -1.848284
-0.64120501 6.6883092 -1.743716
-0.82064497 6.7401891 -1.8517489
-0.82879102 6.6554718 -1.749694
-0.74482 6.5307312 -1.831908
-0.65274101 6.8062291 -1.778096
-0.57918602 6.6970668 -1.741998
-0.76500201 6.6753998 -1.746742
-0.60301399 6.5302582 -1.844291
-0.70379299 6.675827 -1.745844
-0.76647401 6.620224 -1.775103
-0.71024001 6.9837041 -1.746161
-0.67700601 6.8904271 -1.736338
-0.72080499 7.0601349 -1.7388721
-0.80741298 6.8482208 -1.74202
-0.548796 6.9177399 -1.732244
-0.65813899 7.0463872 -1.739553
-0.64880401 6.9885859 -1.744832
-0.61519301 6.8802028 -1.736672
-0.59855098 6.8119202 -1.7758909
-0.832156 6.8800049 -1.771978
-0.73539197 6.845993 -1.749043
-0.58874398 6.981812 -1.744741
-0.739191 6.8969121 -1.736402
-0.59231198 7.068542 -1.7367131
-0.79223299 6.9829712 -1.74719
-0.81049597 7.0687261 -1.781683
-1.1185631 7.1964569 -1.755374
-1.138918 7.2638402 -1.811482
-0.91755903 7.1795201 -1.780937
-0.91926599 7.25563 -1.747059
-0.96060801 7.3455658 -1.8418519
-1.08005 7.2584529 -1.76211
-0.85189301 7.289032 -1.742985
-0.86544597 7.1657262 -1.781245
-0.96687001 7.3917999 -1.821503
-0.98526597 7.238297 -1.7495691
-1.03763 7.125793 -1.790195
-1.053934 7.197464 -1.754428
-1.0342751 7.2649379 -1.756986
-0.90778399 7.2896419 -1.752773
-0.908804 7.379745 -1.819185
-0.979357 7.1427922 -1.7867399
-1.02018 7.4150391 -1.821848
-1.027653 7.359375 -1.849321
-0.88830799 7.5022888 -1.746639
-0.87452197 7.5827641 -1.835435
-0.90093303 7.662323 -1.79197
-0.89736998 7.7172551 -1.851548
-1.05126 7.509079 -1.746731
-1.114815 7.515686 -1.746964
-1.044167 7.6614232 -1.79776
-0.98379397 7.5423279 -1.742586
-0.98226202 7.5935969 -1.830981
-0.85456699 7.4261169 -1.851658
-0.950405 7.6554871 -1.794818
-0.85777497 7.6464081 -1.792428
-0.85432303 7.5580139 -1.739385
-1.0010459 7.64502 -1.7982171
-0.91958302 7.5441132 -1.741572
-0.95563 7.4762878 -1.750036
-1.090493 7.4290161 -1.756447
-1.066681 7.5678558 -1.825146
-1.092738 7.658936 -1.800058
-0.75756299 7.1582341 -1.779514
-0.75680798 7.2475429 -1.7788889
-0.81114602 7.1638341 -1.780144
-0.78733498 7.2949371 -1.7416511
-0.65671402 7.3272858 -1.737028
-0.64521098 7.2571411 -1.775177
-0.645033 7.1789088 -1.7744991
-0.59818298 7.1492462 -1.828794
-0.58761603 7.197403 -1.771054
-0.58919698 7.2642212 -1.773091
-0.81049001 7.3639979 -1.814672
-0.59209102 7.3378601 -1.735304
-0.53292298 7.2004242 -1.769489
-0.53509402 7.2597051 -1.772402
-0.53620201 7.3151398 -1.828742
-0.723189 7.2971191 -1.740708
-0.70390499 7.2346039 -1.779125
-0.70260799 7.160645 -1.777945
-0.71931702 7.4367828 -1.837535
-0.72448999 7.58255 -1.735405
-0.71393198 7.653244 -1.786094
-0.68216002 7.4754181 -1.813166
-0.69118202 7.5340729 -1.741098
-0.66418701 7.7226262 -1.826162
-0.53156102 7.6072078 -1.730809
-0.56023097 7.5564418 -1.7374099
-0.55897897 7.4707789 -1.8060189
-0.74383599 7.700851 -1.9043911
-0.59446901 7.6159668 -1.730646
-0.57849002 7.434845 -1.745325
-0.78813797 7.5840449 -1.736026
-0.82349598 7.5007482 -1.7459511
-0.63755101 7.7059169 -1.825928
-0.65605402 7.6408081 -1.72892
-0.62421602 7.565002 -1.737321
-0.62263697 7.4674072 -1.810569
-0.51592898 6.7179108 -1.73905
-0.42202201 6.5735469 -1.801939
-0.39873901 6.7788849 -1.756532
-0.45540699 6.7152562 -1.738565
-0.27001199 6.7481542 -1.7330101
-0.28903401 6.6740718 -1.780109
-0.329642 6.5550842 -1.7555799
-0.344111 6.6428828 -1.786343
-0.33158001 6.7382808 -1.734724
-0.393648 6.7246861 -1.736849
-0.22938 6.6790161 -1.8227969
-0.49398801 6.8043671 -1.773895
-0.49068099 6.6887822 -1.7656
-0.477694 6.588181 -1.803382
-0.230957 6.9820862 -1.722806
-0.334786 7.1039729 -1.730835
-0.228129 7.0934138 -1.746856
-0.34060901 7.0360112 -1.736136
-0.487414 6.9039922 -1.7329741
-0.46362099 7.0163732 -1.739612
-0.46339101 7.0858002 -1.733773
-0.23346201 6.9128418 -1.736725
-0.27960601 7.042191 -1.73481
-0.35769901 6.9564672 -1.726501
-0.35729799 6.9076691 -1.738489
-0.52731901 7.0830078 -1.734656
-0.41977301 6.9807591 -1.758314
-0.42315501 6.9221802 -1.730531
-0.296051 6.9022059 -1.738415
-0.296049 6.9473419 -1.726835
-0.39859599 7.1007228 -1.731717
-0.40167499 7.030045 -1.737461
-0.39016199 6.840836 -1.8158261
-0.52526098 7.0068822 -1.741352
-0.084820002 6.7909851 -1.7266411
-0.105351 6.6544042 -1.775956
0.058977 6.7380681 -1.77148
-0.063271001 6.5836029 -1.750753
-0.208535 6.758255 -1.731297
-0.19903199 6.6562042 -1.779124
-0.058115002 6.6556849 -1.774099
-0.047242001 6.7521672 -1.77372
-0.023991 6.79776 -1.72534
0.036770999 6.8047638 -1.724039
0.066895999 6.6904302 -1.7912149
0.006635 6.6906738 -1.794701
0.068020001 6.5961151 -1.730378
-0.0078830002 6.5943761 -1.738354
-0.130465 6.5631871 -1.753193
-0.145714 6.784409 -1.727942
-0.042057 7.0162659 -1.717859
-0.157111 7.0631409 -1.731337
-0.148875 6.8864589 -1.74502
-0.034357 7.092896 -1.727043
0.002563 6.8612208 -1.7452559
0.079658002 6.9931178 -1.725859
0.020718999 7.0281072 -1.71621
-0.16878 6.9813542 -1.7223459
-0.219023 7.044632 -1.733898
0.068861 6.8704529 -1.743885
-0.063621998 6.8561859 -1.746248
-0.107039 6.9545898 -1.7313271
-0.104367 7.012588 -1.718714
-0.095347002 7.0818791 -1.728778
-0.269375 7.1312561 -1.727607
-0.25910601 7.2263489 -1.760746
-0.256989 7.295166 -1.7624691
-0.270123 7.3981171 -1.726305
-0.33345401 7.398315 -1.7268521
-0.369158 7.2106781 -1.7648031
-0.31201199 7.2908168 -1.764081
-0.479536 7.1958008 -1.768865
-0.47800899 7.2750401 -1.76939
-0.46371499 7.3517461 -1.7326421
-0.49827799 7.4162288 -1.758823
-0.31292 7.2262731 -1.761835
-0.525078 7.3804021 -1.7304519
-0.36822701 7.2788091 -1.766623
-0.424059 7.1252441 -1.7658761
-0.42308101 7.2109828 -1.7658941
-0.42164299 7.2866521 -1.766844
-0.399344 7.3630071 -1.73092
-0.395657 7.4198761 -1.73636
-0.455962 7.4621892 -1.9023989
-0.34176901 7.5582728 -1.81824
-0.464434 7.6582341 -1.725109
-0.425753 7.51088 -1.8998179
-0.402174 7.6419978 -1.726055
-0.33580801 7.6895289 -1.720749
-0.23392101 7.6283259 -1.727051
-0.273339 7.6777039 -1.721305
-0.29794499 7.6317749 -1.727344
-0.23119999 7.4785461 -1.73866
-0.428675 7.5956268 -1.732181
-0.114355 7.3632512 -1.7939301
-0.148653 7.2926331 -1.760645
-0.15047701 7.2349548 -1.757632
-0.012417 7.1950989 -1.719395
0.028337 7.1279449 -1.722836
0.017263001 7.319839 -1.7544349
-0.173151 7.370285 -1.79617
0.059454001 7.4135742 -1.801896
0.072394997 7.3293152 -1.752369
0.051916 7.219574 -1.716561
0.050976999 7.166626 -1.738636
-0.205208 7.1429138 -1.725944
-0.205323 7.226624 -1.759658
-0.047042999 7.397202 -1.8138241
-0.035525002 7.3302922 -1.754182
-0.041556001 7.248291 -1.754054
-0.093762003 7.2975621 -1.759037
-0.076003999 7.1867518 -1.720665
-0.202021 7.2996979 -1.76086
-0.14089 7.158752 -1.723891
-0.013348 7.4710999 -1.717085
-0.081424996 7.727005 -1.714772
-0.103707 7.6698298 -1.721835
0.024984 7.688385 -1.71894
-0.105002 7.6088099 -1.795045
-0.078700997 7.5317688 -1.818055
-0.076586001 7.4664311 -1.718021
0.050771002 7.4958801 -1.714195
0.045717001 7.5489349 -1.7305239
-0.20391101 7.445816 -1.721066
-0.177645 7.5809169 -1.825251
-0.14443401 7.7262568 -1.715386
-0.20879599 7.701859 -1.718345
-0.135949 7.6503448 -1.729079
-0.039813999 7.667068 -1.721545
-0.019317999 7.591949 -1.791575
-0.023274001 7.5339508 -1.732285
-0.141909 7.426208 -1.722476
-1.47811 8.4958038 -1.98792
-1.321129 7.766006 -1.9792759
-1.172285 8.6430511 -1.926056
-1.544083 8.4895172 -1.994015
-1.212559 7.8837738 -1.921665
-1.392554 7.7881622 -1.947243
-2.0697539 7.7838588 -1.649177
-2.0811889 8.0316315 -1.633852
-2.1543109 8.0254059 -1.666628
-2.122673 7.9574432 -1.653809
-2.296597 7.832108 -1.685151
-2.1727221 7.9837341 -1.7820899
-2.188885 7.9299321 -1.657841
-2.1622779 7.88063 -1.669777
-2.1716449 7.810883 -1.684678
-2.2059481 7.7332458 -1.66682
-2.27616 7.8846889 -1.776377
-2.313576 7.782135 -1.664529
-2.2912259 7.9729462 -1.663067
-2.2527871 7.7886348 -1.6623859
-2.3123651 7.9224548 -1.661142
-2.2308099 7.8410192 -1.683009
-2.2442729 7.9572911 -1.656314
-2.2157409 8.027298 -1.6570899
-2.2184491 8.0828695 -1.680612
-2.3536041 8.177063 -1.701022
-2.3327091 8.2376251 -1.69602
-2.358916 8.3329926 -1.694689
-2.321656 8.0704498 -1.666101
-2.2261579 8.1334076 -1.6428421
-2.27229 8.2016602 -1.790674
-2.2316101 8.2226725 -1.6937701
-2.296284 8.1222229 -1.644962
-2.264498 8.0617218 -1.665588
-2.257807 8.3147278 -1.692912
-2.308943 8.3218689 -1.694036
-2.3634 8.1349936 -1.644999
-2.211134 8.1698608 -1.641059
-2.15061 8.3359985 -1.772882
-2.2066691 8.3077698 -1.691789
-2.0908761 8.1169739 -1.642076
-2.1508241 8.0762177 -1.661615
-2.145453 8.1381226 -1.642773
-2.1339419 8.197052 -1.692952
-2.113209 8.2638845 -1.693316
-2.0051711 7.914001 -1.658725
-1.789677 7.7957611 -1.679077
-1.766392 7.9200439 -1.650663
-1.867802 7.9867249 -1.6640739
-2.052094 7.9671478 -1.71891
-1.81445 7.9632869 -1.6565371
-1.8284481 7.9107361 -1.652709
-1.850476 7.8167572 -1.6781681
-1.979672 7.808197 -1.681304
-1.965651 7.7505651 -1.659488
-1.981652 8.0054779 -1.664682
-1.889187 7.9094849 -1.6539609
-1.906758 7.7505798 -1.65817
-2.0115359 7.903717 -1.656863
-2.040926 7.825912 -1.680777
-1.951414 7.900619 -1.656008
-1.916535 7.8025212 -1.680688
-1.952208 7.9507141 -1.659658
-1.847906 7.7508092 -1.656853
-2.0245841 7.7507629 -1.6608059
-1.980595 8.3361969 -1.691232
-2.005146 8.2674713 -1.627815
-1.942751 8.244278 -1.799174
-1.996542 8.1274872 -1.695776
-1.819168 8.0948486 -1.639852
-1.921917 8.1894684 -1.694965
-2.0349729 8.098587 -1.63826
-2.041605 8.1809692 -1.637326
-1.77639 8.3033295 -1.687917
-1.810995 8.2089081 -1.688966
-1.799198 8.1374969 -1.637957
-1.860037 8.2442474 -1.760347
-1.832159 8.2929993 -1.69096
-2.0526431 8.227478 -1.643819
-2.0334401 8.3381653 -1.69288
-1.938612 8.1275024 -1.640705
-1.87444 8.0768595 -1.644133
-1.870533 8.1837463 -1.693848
-1.88604 8.2905731 -1.693072
-1.937947 8.2960358 -1.6942509
-2.33652 8.3978119 -1.750098
-2.318249 8.4452362 -1.654676
-2.1932509 8.6360168 -1.65966
-2.330307 8.5980072 -1.662481
-2.1571791 8.4650879 -1.6376261
-2.113579 8.5131073 -1.666908
-2.0914581 8.4338379 -1.639329
-2.0647011 8.5764465 -1.659905
-2.1307509 8.5844574 -1.660279
-2.3632741 8.4770813 -1.639737
-2.178952 8.5215912 -1.667228
-2.195792 8.4428101 -1.652396
-2.177006 8.3987427 -1.691296
-2.295042 8.4688873 -1.639377
-2.2653279 8.5814056 -1.662824
-2.2286949 8.4052582 -1.6924829
-2.226784 8.4609222 -1.639017
-2.2405 8.535675 -1.677125
-2.2678111 8.7828369 -1.662124
-2.267199 8.6808777 -1.654205
-2.2135279 8.8733826 -1.657092
-2.2597179 8.7192993 -1.77238
-2.2753949 8.8755798 -1.6581351
-2.25387 8.9259338 -1.660033
-2.059504 8.8005219 -1.657914
-2.3244989 8.7034607 -1.653254
-2.336766 8.7827148 -1.663062
-2.0898559 8.8696442 -1.655009
-2.1504209 8.8792572 -1.655274
-2.130404 8.7798462 -1.6605999
-2.143425 8.6872864 -1.651006
-2.083956 8.6770926 -1.65078
-2.3477139 8.8376617 -1.667309
-2.335938 8.8858337 -1.658403
-2.1698689 8.8459167 -1.663829
-2.2035539 8.6937714 -1.651624
-2.2001779 8.7713165 -1.662236
-2.126467 8.9382935 -1.656497
-1.847554 8.6265869 -1.651058
-1.955864 8.4076843 -1.639643
-2.0222549 8.4345093 -1.638283
-1.848694 8.5536041 -1.661064
-1.983227 8.4928589 -1.666633
-1.964938 8.5737457 -1.661268
-1.918682 8.4771423 -1.667042
-1.934731 8.5413208 -1.660951
-1.9567339 8.6371918 -1.655082
-1.796383 8.5085144 -1.664595
-1.8522609 8.477478 -1.665995
-1.8174191 8.4102478 -1.637553
-1.796809 8.5583801 -1.656714
-1.798865 8.6436462 -1.668525
-1.834772 8.3456879 -1.660643
-1.905266 8.3482819 -1.655917
-1.891198 8.5652466 -1.7253391
-1.862301 8.4554443 -1.678211
-1.887776 8.3969421 -1.6396281
-1.904085 8.6556091 -1.649322
-2.0543289 8.8465424 -1.66119
-2.0202241 8.919281 -1.648926
-1.902788 8.8775177 -1.650725
-1.961563 8.8983002 -1.649826
-1.7740459 8.7796173 -1.7471859
-1.795067 8.8655701 -1.855323
-1.804587 8.9267426 -1.756629
-1.939291 8.934906 -1.6535079
-1.921221 8.8108978 -1.655346
-1.959174 8.692688 -1.646801
-1.997395 8.8432617 -1.660291
-1.84504 8.8989563 -1.709132
-1.993452 8.7738647 -1.659429
-1.841797 8.8242645 -1.683683
-2.023798 8.6710215 -1.6501631
-1.856881 8.7648773 -1.658612
-1.744229 8.019577 -1.658103
-1.705107 7.925674 -1.649014
-1.604552 7.9915619 -1.6478961
-1.550486 7.763062 -1.662329
-1.516899 7.9994202 -1.769012
-1.517176 7.9445038 -1.825541
-1.542347 7.8965449 -1.77095
-1.4478689 8.0282745 -1.7652791
-1.7458839 7.9679718 -1.655154
-1.723761 7.8104711 -1.676559
-1.592173 7.9231868 -1.684636
-1.675768 7.988739 -1.6523629
-1.59491 7.862946 -1.653259
-1.61731 7.7303772 -1.654056
-1.6397769 7.787003 -1.6786391
-1.656353 7.837234 -1.6729
-1.6458549 7.9197388 -1.648556
-1.620612 8.0232239 -1.643212
-1.487191 7.8331909 -1.776371
-1.468218 7.9457092 -1.8232239
-1.691082 8.2748108 -1.647481
-1.5105211 8.33815 -1.834887
-1.481383 8.2344666 -1.796105
-1.466326 8.075058 -1.775768
-1.6824 8.2006378 -1.66626
-1.635857 8.3201141 -1.780722
-1.680573 8.1129913 -1.6363159
-1.456856 8.3068686 -1.793709
-1.71571 8.1031952 -1.651093
-1.743492 8.1672363 -1.632538
-1.727053 8.3120422 -1.6562279
-1.52356 8.1338806 -1.770847
-1.573244 8.0895538 -1.761156
-1.532307 8.2229004 -1.768507
-1.283076 7.9524231 -1.761152
-1.30593 7.8934941 -1.768214
-1.280678 7.7597198 -1.791867
-1.354628 7.8808141 -1.769451
-1.168169 7.8987432 -1.823101
-1.204241 8.0230103 -1.801664
-1.4158159 7.9584661 -1.819244
-1.437086 7.8919678 -1.835284
-1.424252 7.8292389 -1.775736
-1.307999 7.9960022 -1.809621
-1.360087 7.9828029 -1.8135999
-1.152449 7.9976039 -1.754644
-1.24687 7.8210139 -1.8543921
-1.215647 7.992691 -1.7560821
-1.148827 7.7716522 -1.744979
-1.235272 8.1916962 -1.746753
-1.252924 8.2757111 -1.752618
-1.234482 8.097641 -1.787172
-1.3037339 8.1580963 -1.750867
-1.323283 8.2111969 -1.760066
-1.351849 8.0559998 -1.794963
-1.2915421 8.0845032 -1.790117
-1.189858 8.2731934 -1.751955
-1.373619 8.112854 -1.7561409
-1.365198 8.1947937 -1.7645971
-1.420845 8.2097321 -1.770355
-1.437632 8.1120911 -1.774299
-1.170189 8.1898499 -1.746116
-1.178292 8.1071014 -1.7847019
-1.323481 8.3387909 -1.754643
-1.394537 8.2814026 -1.761063
-1.568114 8.3629303 -1.7751
-1.498076 8.4257355 -1.767404
-1.614086 8.548233 -1.77321
-1.686306 8.3627319 -1.7508889
-1.664858 8.5756226 -1.765137
-1.592913 8.636261 -1.7582459
-1.6599981 8.5025787 -1.79667
-1.593701 8.4614115 -1.799795
-1.750738 8.3841085 -1.638913
-1.750859 8.4548798 -1.665897
-1.746966 8.5510559 -1.712682
-1.732399 8.6342926 -1.766542
-1.543185 8.6083527 -1.766188
-1.522225 8.5543671 -1.84214
-1.470467 8.7940521 -1.755054
-1.471463 8.6806183 -1.757972
-1.712677 8.943222 -1.790154
-1.7516429 8.8490448 -1.766935
-1.569207 8.8126373 -1.764302
-1.603676 8.718399 -1.76502
-1.500193 8.8685913 -1.757558
-1.607972 8.8819427 -1.787346
-1.682988 8.8037415 -1.795458
-1.708477 8.7015228 -1.777796
-1.624106 8.8070984 -1.811725
-1.675108 8.6474152 -1.7734981
-1.617092 8.9164886 -1.9057651
-1.450735 8.7544098 -1.744858
-1.521799 8.693222 -1.751744
-1.534726 8.7738647 -1.758188
-1.534909 8.9405518 -1.781106
-1.364374 8.5126801 -1.7561671
-1.3018841 8.5249481 -1.75387
-1.288868 8.4677277 -1.833406
-1.1758749 8.562027 -1.748035
-1.1740921 8.4538116 -1.776498
-1.188599 8.3829498 -1.748752
-1.3198839 8.5860901 -1.838313
-1.347405 8.4842072 -1.762868
-1.3123209 8.4155731 -1.7816989
-1.428509 8.4888153 -1.759709
-1.2376291 8.5532532 -1.749915
-1.242581 8.4425201 -1.778343
-1.255953 8.3607483 -1.7516969
-1.187994 8.7875366 -1.738215
-1.184756 8.9147186 -1.748317
-1.339466 8.7269735 -1.751505
-1.43471 8.8971395 -1.753669
-1.321865 8.6599121 -1.783078
-1.282608 8.8204193 -1.749352
-1.440941 8.6578369 -1.779938
-1.275841 8.7287292 -1.750463
-1.212809 8.6640615 -1.780033
-1.252413 8.7928009 -1.738521
-1.269469 8.650177 -1.7829829
-1.246456 8.9169159 -1.74894
-1.371601 8.9061432 -1.75182
-1.308583 8.9153748 -1.749972
-1.384043 8.7722626 -1.742229
-1.404761 8.7096252 -1.754141
-1.3178411 8.786377 -1.739988
-1.376465 8.6581421 -1.784602
-1.159045 8.6625214 -1.778988
-1.146572 8.7566833 -1.745993
-1.717654 9.1098022 -1.910395
-1.517622 9.4939117 -1.954635
-1.886254 10.040695 -1.992733
-1.878168 9.6284332 -1.913111
-2.12957 9.09198 -1.6644371
-2.1538639 9.1465302 -1.715776
-2.314043 9.2182159 -1.6796221
-2.3276069 9.1300507 -1.699922
-2.339535 9.0771332 -1.668474
-2.115927 9.2525635 -1.8517931
-2.301888 8.9750519 -1.670922
-2.1804931 9.206955 -1.678795
-2.1987159 9.0947113 -1.665086
-2.1620331 8.9922638 -1.667576
-2.2474999 9.210495 -1.679389
-2.269083 9.0858002 -1.666779
-2.266577 9.1608887 -1.720033
-2.23066 8.9954071 -1.668196
-2.0628359 9.2218323 -1.731541
-2.0837619 9.0292358 -1.665695
-2.097218 9.1714478 -1.709568
-2.198241 9.4751129 -1.7419159
-2.102906 9.3027039 -1.669168
-2.0709331 9.4010468 -1.6559809
-2.1099 9.4773865 -1.6550471
-2.2680571 9.5374146 -1.675985
-2.2787211 9.4524841 -1.662653
-2.216912 9.4472656 -1.6620229
-2.2444291 9.3144379 -1.655009
-2.184798 9.297226 -1.655534
-2.144907 9.5132141 -1.654435
-2.1431749 9.4411163 -1.7107019
-2.3449669 9.4059448 -1.77956
-2.3362739 9.4854584 -1.6605771
-2.3348141 9.5409393 -1.6766109
-2.1140239 9.3550568 -1.648707
-2.2025321 9.4085693 -1.7181129
-2.312695 9.2768097 -1.659903
-2.3531539 9.3479614 -1.664338
-1.82853 9.1038361 -1.772275
-1.838894 9.2125702 -1.81717
-1.951443 9.0358124 -1.661164
-1.944687 9.1787262 -1.674953
-2.018368 9.0541077 -1.6603791
-1.756739 9.1717072 -1.764385
-1.77491 9.0397949 -1.781925
-1.78645 9.1333923 -1.767735
-1.767475 9.2437592 -1.762525
-1.882859 9.1864166 -1.764998
-1.9025691 9.051712 -1.686684
-1.997092 8.9673309 -1.651425
-1.975926 9.1080627 -1.658076
-1.984988 9.1586914 -1.6568871
-2.054966 9.1490173 -1.658576
-2.0408001 9.1966248 -1.703361
-1.996699 9.5453339 -1.8760819
-2.016161 9.4383087 -1.6879261
-2.0539131 9.3422394 -1.6488481
-1.98733 9.4969625 -1.766695
-2.000952 9.2783661 -1.654017
-1.772265 9.5045319 -1.75816
-1.797217 9.3839264 -1.809348
-2.0500319 9.5440063 -1.682163
-1.850785 9.5547028 -1.7589951
-1.8437411 9.4471588 -1.764536
-1.785078 9.3191986 -1.772156
-1.923075 9.4861135 -1.766745
-1.9137059 9.4098816 -1.768991
-1.93347 9.3419647 -1.820383
-1.851809 9.3661957 -1.813867
-1.8497109 9.3031616 -1.774853
-2.153019 9.8182526 -1.653954
-2.1467171 9.6156158 -1.658318
-2.3189781 9.6278992 -1.661042
-2.336724 9.7393494 -1.754997
-2.3273399 9.8083801 -1.805769
-2.212584 9.7823944 -1.733323
-2.202183 9.6299286 -1.6581171
-2.167685 9.6891479 -1.668059
-2.231884 9.7197571 -1.666198
-2.2061429 9.8453369 -1.714797
-2.2375 9.6667328 -1.807144
-2.252018 9.5912628 -1.684813
-2.2899339 9.8173523 -1.7375751
-2.3087051 9.6968689 -1.690612
-2.262789 9.6170807 -1.660826
-2.0954061 9.5779877 -1.661014
-2.091809 9.6749105 -1.670041
-2.0619531 9.8603058 -1.814983
-2.201107 10.021179 -1.662434
-2.203692 9.8978119 -1.647275
-2.3135059 9.9904165 -1.640506
-2.3201511 9.8989258 -1.651463
-2.253653 9.8688812 -1.6530631
-2.257302 9.9538727 -1.642921
-2.2590489 10.157974 -1.651396
-2.3576469 10.059479 -1.653149
-2.3272419 10.167892 -1.651448
-2.1999359 10.099564 -1.680428
-2.0839679 9.9293671 -1.7775069
-2.067194 10.004105 -1.7711819
-2.103869 10.132095 -1.767369
-2.145056 10.083328 -1.811541
-2.300312 10.049423 -1.652931
-2.305409 10.146286 -1.681023
-2.1471729 9.8735199 -1.700587
-2.1475911 9.9224854 -1.725578
-2.1390629 10.01561 -1.769797
-1.947174 9.6419373 -1.775365
-1.936301 9.7237549 -1.7737139
-1.977656 9.8014069 -1.768082
-1.975932 9.6643829 -1.7702579
-1.995968 9.5932312 -1.809219
-1.7566611 9.7052155 -1.789512
-1.77221 9.8076324 -1.752117
-1.817742 9.6690826 -1.795409
-1.837366 9.7793732 -1.756109
-1.782463 9.5879059 -1.754757
-1.90914 9.7000275 -1.7654409
-1.8693579 9.7437134 -1.763552
-1.909279 9.8192749 -1.765502
-2.0341671 9.6960449 -1.7680939
-2.044306 9.8036041 -1.768754
-2.013247 9.8584595 -1.81318
-2.0224979 10.150696 -1.8002239
-1.940823 10.062256 -1.762391
-1.9199409 10.163055 -1.754091
-1.901938 9.9048767 -1.8025219
-1.904066 9.9572601 -1.852883
-1.870568 10.123169 -1.755432
-1.954764 9.8910828 -1.806494
-1.7829731 9.8720398 -1.847423
-1.762762 9.9827423 -1.748124
-1.767645 10.082306 -1.819793
-2.0107081 9.8852081 -1.858063
-2.0111029 10.005569 -1.7689559
-1.991722 10.101288 -1.760916
-1.968392 10.151688 -1.798697
-1.84565 9.9579926 -1.781183
-1.835394 9.9048309 -1.756429
-1.486199 9.1873779 -1.847998
-1.4552391 9.2165527 -1.754534
-1.464915 8.9597168 -1.778603
-1.58516 9.2047577 -1.75761
-1.626536 9.1516266 -1.802076
-1.637261 9.0256186 -1.781705
-1.683895 9.2469788 -1.7558171
-1.495978 9.0680542 -1.776302
-1.565083 9.068573 -1.776965
-1.704268 9.0028687 -1.797464
-1.704752 9.054245 -1.840245
-1.555861 9.1440887 -1.800209
-1.530859 9.0567932 -1.786662
-1.690262 9.1924133 -1.908514
-1.553652 9.2859344 -1.749907
-1.561312 9.3599548 -1.748314
-1.524121 9.4213562 -1.757694
-1.6731991 9.4754944 -1.843315
-1.495697 9.3701019 -1.746436
-1.688326 9.4162903 -1.8280081
-1.495365 9.2729187 -1.750173
-1.702933 9.5423279 -1.753709
-1.586308 9.420166 -1.758749
-1.694353 9.3244934 -1.7536319
-1.458258 9.458374 -1.752957
-1.6365319 9.548645 -1.752334
-1.650341 9.4033966 -1.7614419
-1.616745 9.2885132 -1.750608
-1.57083 9.5472565 -1.751729
-1.734724 9.3090525 -1.839041
-1.71218 9.4066162 -1.762089
-1.323962 9.0226135 -1.771361
-1.35491 9.1194458 -1.770166
-1.284981 9.1395569 -1.767656
-1.255173 9.0305786 -1.7699831
-1.334223 9.1722565 -1.826807
-1.1955841 9.2433929 -1.78864
-1.258219 9.0781097 -1.777638
-1.215987 9.1439972 -1.766629
-1.1663899 9.1999207 -1.829973
-1.2036099 9.0845337 -1.775643
-1.186873 9.030838 -1.769352
-1.1614799 8.9755859 -1.796948
-1.146674 9.1566315 -1.7648619
-1.425467 9.091629 -1.773419
-1.394822 8.983078 -1.775728
-1.366936 9.0697784 -1.78115
-1.3709379 9.283432 -1.747234
-1.2097549 9.4741364 -1.747933
-1.373335 9.3262329 -1.771471
-1.14518 9.5083618 -1.7436121
-1.2716219 9.4718475 -1.748983
-1.335446 9.4499664 -1.752079
-1.4263541 9.2933502 -1.74731
-1.366007 9.3752289 -1.744239
-1.234736 9.4050903 -1.739711
-1.2345999 9.3200226 -1.742028
-1.4308341 9.3725433 -1.745337
-1.1704201 9.334671 -1.739737
-1.169283 9.4203796 -1.737449
-1.397452 9.4481201 -1.753132
-1.299946 9.2937317 -1.745515
-1.30031 9.3900452 -1.741974
-1.51768 9.6518097 -1.7448421
-1.50362 9.5659475 -1.749203
-1.490214 9.7021027 -1.783338
-1.4872119 9.7582865 -1.7699701
-1.4628381 9.8218842 -1.745721
-1.710881 9.8045044 -1.751411
-1.588232 9.7989044 -1.75
-1.696528 9.733902 -1.774682
-1.453238 9.650528 -1.744119
-1.7294869 9.8353729 -1.753032
-1.583161 9.6414337 -1.746734
-1.714398 9.6213684 -1.750522
-1.526507 9.8003855 -1.748886
-1.558171 9.726059 -1.773748
-1.649449 9.6233521 -1.7494071
-1.629364 9.6940613 -1.777529
-1.650866 9.7897339 -1.751936
-1.633747 9.9408417 -1.750614
-1.6347131 10.005569 -1.7744631
-1.5646501 10.021927 -1.772226
-1.608582 10.086075 -1.825325
-1.456946 9.933136 -1.826102
-1.484419 10.160843 -1.747004
-1.484146 10.081741 -1.834939
-1.495438 10.022614 -1.771467
-1.749495 9.928421 -1.79333
-1.732838 10.057007 -1.821407
-1.741236 10.138779 -1.7522219
-1.67861 10.125122 -1.752799
-1.698014 9.9656525 -1.748987
-1.662167 9.8927307 -1.7946219
-1.548941 10.150024 -1.7488019
-1.5000041 9.9633789 -1.746999
-1.478249 9.8694916 -1.752234
-1.566273 9.9599304 -1.7480429
-1.55077 10.079468 -1.821975
-1.276404 9.8481293 -1.7403359
-1.401629 9.8198547 -1.745019
-1.387596 9.6653442 -1.7418391
-1.369652 9.6040497 -1.744156
-1.4365619 9.5848694 -1.7466789
-1.2786911 9.780899 -1.765641
-1.321211 9.6923075 -1.738391
-1.338589 9.8378296 -1.742267
-1.276034 9.7124481 -1.777239
-1.3026299 9.6274261 -1.74125
-1.213629 9.8665619 -1.737587
-1.1770771 9.586441 -1.8013541
-1.16936 9.6709442 -1.735827
-1.190102 9.7310638 -1.733058
-1.175631 9.8495178 -1.74242
-1.257229 9.6877441 -1.738061
-1.237273 9.6272125 -1.7406501
-1.158772 9.6347961 -1.814063
-1.415789 9.8640594 -1.751922
-1.428479 9.7990723 -1.751089
-1.418852 9.7390594 -1.770979
-1.370348 10.148621 -1.773973
-1.151001 9.8852386 -1.734839
-1.15812 10.169754 -1.766906
-1.165009 10.071594 -1.733409
-1.432278 9.9909058 -1.743667
-1.42541 10.043442 -1.768865
-1.210326 9.9854431 -1.812169
-1.199198 9.9338989 -1.737956
-1.2322201 10.039139 -1.737116
-1.216763 10.091492 -1.762545
-1.3161989 10.159485 -1.771472
-1.356148 10.048599 -1.767741
-1.365702 10.002777 -1.741864
-1.369547 9.9134674 -1.821685
-1.299021 9.9608765 -1.808333
-1.2992229 10.014877 -1.740061
-1.286515 10.065948 -1.765511
-1.1248879 8.5912476 -1.917254
0.036729001 7.8613129 -1.922554
-0.88578302 7.812027 -1.737716
-0.90505803 7.8844762 -1.7393889
-0.87825 8.0015564 -1.791575
-0.83896101 7.895401 -1.73763
-1.045761 8.017395 -1.751641
-1.041159 7.929214 -1.763687
-1.036518 7.8752441 -1.741757
-1.017125 7.7913818 -1.741346
-0.97124499 7.873795 -1.741148
-0.97064197 7.9491882 -1.7611541
-0.99752998 8.0013733 -1.7547669
-1.081175 8.0075989 -1.9080271
-1.1089211 7.9571991 -1.761835
-1.084832 7.7388 -1.75615
-1.080357 7.8091431 -1.740454
-1.1021481 7.8729548 -1.742751
-0.95937002 7.7412572 -1.754221
-0.94970697 7.8214259 -1.737597
-0.96005702 8.0453644 -1.7471091
-0.95660198 8.1352692 -1.776257
-0.91825098 8.2572632 -1.756838
-0.931427 8.3366852 -1.742133
-0.96796298 8.2769928 -1.735333
-0.989039 8.2248545 -1.760483
-1.080021 8.089798 -1.744333
-1.097445 8.27948 -1.7366019
-1.1105829 8.179245 -1.774637
-1.020106 8.0674744 -1.745721
-0.90323699 8.2760925 -1.7347
-0.90155602 8.1418304 -1.774267
-0.89568597 8.0670319 -1.744061
-1.0117249 8.128891 -1.778248
-1.033339 8.2701874 -1.736739
-1.057392 8.3361816 -1.7438509
-0.849877 8.1290283 -1.7746511
-0.84024799 8.1998901 -1.806645
-0.84856999 8.2700195 -1.755024
-0.83546299 8.3190918 -1.7298239
-0.62196797 8.0090179 -1.752527
-0.68861198 7.856689 -1.7311209
-0.70625103 7.9298711 -1.7329659
-0.692204 7.9941711 -1.785659
-0.57528698 7.9454041 -1.730224
-0.57588202 7.8491211 -1.7387691
-0.56614298 7.7788091 -1.802393
-0.54025298 7.730453 -1.808863
-0.55751801 7.8915858 -1.726343
-0.621508 7.895874 -1.726606
-0.639431 7.8305659 -1.7413419
-0.81931299 7.8346248 -1.734743
-0.72359502 7.7464142 -1.829065
-0.75331903 7.8534698 -1.7321579
-0.76053101 7.9986882 -1.75466
-0.76734197 7.7901921 -1.746894
-0.83118898 7.9660192 -1.758284
-0.78509402 7.8613429 -1.746814
-0.77183598 7.9224401 -1.734338
-0.57311499 8.2433167 -1.793947
-0.83332503 8.0691223 -1.74303
-0.73814797 8.1549072 -1.769251
-0.74130702 8.0426025 -1.747214
-0.57470697 8.1736908 -1.763768
-0.78362501 8.2562103 -1.80299
-0.77144098 8.3107147 -1.729965
-0.78124499 8.1920166 -1.804189
-0.55183601 8.0424347 -1.748907
-0.70662302 8.3144684 -1.728948
-0.69958502 8.2498322 -1.799494
-0.68339002 8.1622772 -1.767264
-0.706671 8.0977478 -1.738552
-0.60632902 8.0362091 -1.830844
-0.794918 8.1359863 -1.772662
-0.76958501 8.0872803 -1.740387
-0.63631999 8.2464142 -1.79672
-0.628111 8.1737823 -1.764804
-0.53081203 8.2870941 -1.821785
-0.580809 8.1233063 -1.73448
-0.64515102 8.0925751 -1.7383291
-1.0565439 8.4002991 -1.7455651
-1.0378751 8.4691916 -1.773568
-1.056904 8.5406799 -1.7484241
-0.99154502 8.5857239 -1.742813
-0.85788 8.4459381 -1.739058
-1.106446 8.4534302 -1.7757879
-0.92397898 8.430481 -1.741226
-0.93052697 8.5914154 -1.741351
-0.96678197 8.5328979 -1.766819
-0.869955 8.5933838 -1.740303
-0.89986598 8.5252838 -1.766867
-1.124598 8.3657074 -1.7496639
-1.1209871 8.4842377 -1.831461
-1.117739 8.5393982 -1.749473
-0.89204597 8.3880463 -1.746004
-0.98933101 8.4271851 -1.742238
-0.92418098 8.8601379 -1.7281131
-0.95387298 8.7963867 -1.739695
-0.93976098 8.6856995 -1.771485
-0.93090099 8.9469147 -1.9087
-1.058476 8.9426727 -1.743813
-1.0550849 8.8332977 -1.732195
-1.019406 8.7657318 -1.743518
-1.084221 8.8742981 -1.8385971
-1.082795 8.7630768 -1.744556
-1.1032701 8.6728973 -1.776516
-0.99723798 8.6629639 -1.775381
-0.98109698 8.7569265 -1.822082
-0.99190199 8.8128357 -1.7334369
-0.99655801 8.9450989 -1.742785
-1.0502549 8.6678314 -1.775948
-0.90393502 8.7554932 -1.815873
-0.88976502 8.8114014 -1.737466
-1.120055 8.9444265 -1.744435
-0.85901701 8.8719177 -1.726267
-1.1208479 8.8182373 -1.734431
-0.88558602 8.6890564 -1.769968
-0.81954402 8.3862 -1.77163
-0.83175498 8.5417786 -1.7646509
-0.56072801 8.6061554 -1.756176
-0.594935 8.5061045 -1.730785
-0.72558397 8.4854889 -1.733956
-0.74712598 8.6177368 -1.736137
-0.55656999 8.3796844 -1.734409
-0.639956 8.3502502 -1.724849
-0.57511199 8.3584442 -1.723449
-0.601107 8.4130402 -1.7641129
-0.660326 8.4936981 -1.7325619
-0.66014498 8.6001282 -1.740841
-0.67715901 8.3761139 -1.735119
-0.76313198 8.4141541 -1.742009
-0.79115897 8.4735413 -1.735736
-0.807558 8.6153564 -1.737184
-0.69760901 8.4454346 -1.738232
-0.668459 8.5474854 -1.9078031
-0.68535298 8.6362 -1.733434
-0.69701999 8.783844 -1.809095
-0.668293 8.7122955 -1.762957
-0.76299298 8.8262329 -1.7345999
-0.78060198 8.7646942 -1.782378
-0.699965 8.8300171 -1.733567
-0.66472298 8.8967295 -1.721893
-0.77799398 8.6924286 -1.7674119
-0.72257602 8.9274445 -1.7306629
-0.611552 8.8564606 -1.754908
-0.64228499 8.7918701 -1.8235641
-0.61330998 8.7244873 -1.760493
-0.62438798 8.6469574 -1.7315609
-0.66100299 8.9386749 -1.728774
-0.79325497 8.8958588 -1.723263
-0.72985297 8.8802795 -1.724122
-0.72105801 8.7160187 -1.763519
-0.59858 8.9372711 -1.7173491
-0.57220697 8.8700256 -1.728323
-0.56168401 8.7132874 -1.760883
-0.56351697 8.6579285 -1.729688
-0.82748097 8.8028259 -1.737623
-0.53396302 8.9502106 -1.7155091
-0.54440498 8.8260803 -1.7885621
-0.83024597 8.7004547 -1.7675
-0.42812201 7.9075618 -1.723502
-0.45195001 7.8511958 -1.737252
-0.50679803 7.7720032 -1.799894
-0.257752 7.82901 -1.81972
-0.23095401 7.7534642 -1.810362
-0.49157 7.9193268 -1.722991
-0.31235701 8.0190277 -1.720921
-0.32537299 7.8938451 -1.731707
-0.357371 7.8059692 -1.785254
-0.50765097 7.9932709 -1.7250201
-0.44354099 7.98175 -1.72557
-0.27179399 7.8058782 -1.781284
-0.30777401 7.8579712 -1.8211761
-0.29759601 7.952271 -1.717962
-0.45405999 7.7468872 -1.800663
-0.37777901 8.0022583 -1.723053
-0.232306 7.9809418 -1.714615
-0.362452 7.93576 -1.720152
-0.37763199 7.84935 -1.905463
-0.39338899 7.7444458 -1.797519
-0.52018201 8.1816559 -1.761785
-0.51997602 8.1106405 -1.735064
-0.29116899 8.3116913 -1.775666
-0.398655 8.1029205 -1.776966
-0.39296201 8.1613617 -1.728579
-0.411156 8.215332 -1.7900569
-0.49044999 8.2347107 -1.7910759
-0.466299 8.1858826 -1.760276
-0.48577201 8.0993795 -1.738483
-0.482651 8.0521851 -1.747478
-0.363345 8.3021545 -1.7793159
-0.26793101 8.1931295 -1.724113
-0.413647 8.0582123 -1.7464139
-0.327916 8.1059113 -1.774278
-0.455378 8.1497803 -1.7304111
-0.45653799 8.305603 -1.782001
-0.243615 8.0660706 -1.74419
-0.330641 8.1731567 -1.726748
-0.103958 7.999207 -1.711785
-0.075741 7.954041 -1.723446
-0.084967002 7.7889252 -1.7754101
0.032598 7.750031 -1.744795
-0.147908 7.7916722 -1.7777719
0.037586 7.9408112 -1.74208
-0.16532899 7.8544159 -1.800128
-0.20069 7.917541 -1.7281801
-0.13010401 7.883286 -1.907147
-0.138495 7.929718 -1.7264169
0.047384001 7.796814 -1.706907
0.068075001 7.850235 -1.8884799
-0.039894 8.008667 -1.710371
-0.016354 7.9311371 -1.744122
-0.167748 7.9979248 -1.712427
-0.020062 7.7941279 -1.771832
-0.018254001 7.7319789 -1.713768
-0.17885099 8.3037872 -1.8005379
-0.206292 8.1974182 -1.723088
-0.206002 8.1374817 -1.737761
-0.127821 8.3120565 -1.770434
-0.14362 8.2218018 -1.720052
-0.052088 8.0844269 -1.712788
-0.019013001 8.2672729 -1.714384
0.024885001 8.0422363 -1.706643
-0.082134999 8.2265472 -1.7190289
-0.081431001 8.3114319 -1.769097
0.012811 8.1063232 -1.710278
-0.005816 8.2135773 -1.720175
-0.220681 8.3138123 -1.77311
-0.13736001 8.1484528 -1.7363369
-0.116722 8.0746918 -1.714148
-0.44407701 8.4073334 -1.7175699
-0.441351 8.5092773 -1.7294689
-0.456866 8.5789337 -1.751669
-0.38082299 8.3883667 -1.718871
-0.39852899 8.5646057 -1.723533
-0.295405 8.4996033 -1.718857
-0.464268 8.5355988 -1.726848
-0.50950301 8.3827667 -1.7205091
-0.26796401 8.6153717 -1.717678
-0.354458 8.3567047 -1.824603
-0.31393999 8.4531708 -1.712081
-0.314549 8.5306396 -1.726282
-0.33254799 8.6057892 -1.719065
-0.251046 8.426712 -1.714155
-0.23410399 8.4845428 -1.7198
-0.25013199 8.5675049 -1.72212
-0.528292 8.5465851 -1.726312
-0.39799899 8.7477112 -1.753974
-0.38051301 8.8088837 -1.7838449
-0.36415499 8.8903198 -1.797083
-0.38091901 8.700058 -1.723245
-0.44606799 8.8910828 -1.72507
-0.29507899 8.8145599 -1.7793289
-0.294815 8.8763733 -1.794649
-0.42068499 8.8158112 -1.78456
-0.45262799 8.734726 -1.756435
-0.26033801 8.719986 -1.719921
-0.236178 8.7760305 -1.748024
-0.243145 8.8653107 -1.793008
-0.25742799 8.9263 -1.720001
-0.50877398 8.8863983 -1.7261
-0.50631601 8.7298126 -1.7579449
-0.44234699 8.6765442 -1.7263581
-0.32097799 8.7039642 -1.722204
-0.50273901 8.6691132 -1.727816
-0.345429 8.7451324 -1.753417
-0.31992799 8.9209747 -1.721027
-0.060911998 8.6078644 -1.716758
-0.057735998 8.4759674 -1.708053
-0.203703 8.6172333 -1.717062
-0.186022 8.4561605 -1.7108361
-0.138914 8.6392059 -1.714523
-0.124031 8.59021 -1.7189389
-0.15646601 8.5225983 -1.72672
-0.074955001 8.6335602 -1.714679
-0.10965 8.4411469 -1.730656
-0.095761001 8.3639069 -1.789675
-0.121716 8.4699402 -1.709059
-0.19982199 8.7362061 -1.717638
-0.139653 8.7486877 -1.71577
-0.141075 8.8403625 -1.790457
-0.89530402 9.6220856 -1.914529
-0.93111998 9.1235809 -1.765198
-0.93863702 9.2159271 -1.7577209
-0.930668 8.9953308 -1.736872
-1.1176111 9.051239 -1.766856
-1.073424 9.2512817 -1.783404
-1.048689 9.0678864 -1.764735
-1.0015219 9.2511139 -1.781021
-1.007733 9.1985779 -1.759853
-1.07679 9.1854401 -1.761616
-1.081597 9.1192169 -1.78563
-0.85440898 9.2071686 -1.7923959
-0.843243 9.1033936 -1.759872
-0.979891 9.0847931 -1.762615
-1.066456 8.9760437 -1.793195
-0.87030298 9.213623 -1.75744
-0.910918 9.1098938 -1.75975
-0.86898798 8.9982147 -1.735846
-0.93516803 9.3549347 -1.734115
-0.95963901 9.5251617 -1.739653
-0.88807899 9.3092651 -1.836426
-0.87328398 9.3660431 -1.732245
-0.90827203 9.4917908 -1.727634
-0.84552401 9.4684753 -1.729264
-0.83550102 9.5480499 -1.7359281
-1.039488 9.4397278 -1.734094
-1.106667 9.3455658 -1.737847
-1.020903 9.5259552 -1.74029
-1.1034321 9.4438477 -1.73441
-1.084483 9.4992065 -1.743791
-0.97972101 9.3640747 -1.734468
-0.93760097 9.2747955 -1.823916
-0.97506398 9.4437866 -1.733001
-0.985798 9.5034637 -1.757768
-0.80642903 9.0131989 -1.7336
-0.77490503 9.1170349 -1.758128
-0.800951 9.2473907 -1.753831
-0.57026702 9.1713562 -1.7517869
-0.74574697 9.0046082 -1.733797
-0.62107497 9.0357056 -1.729311
-0.658301 9.1053925 -1.7734489
-0.63766301 9.1808777 -1.751289
-0.77250099 8.9598236 -1.83757
-0.55992901 9.0357056 -1.7286969
-0.62278402 9.2401428 -1.770687
-0.56883502 9.0716705 -1.813104
-0.70644999 9.1388845 -1.75564
-0.55872798 9.1456299 -1.7555929
-0.55135798 9.2424927 -1.768319
-0.68335003 9.02005 -1.731553
-0.732041 9.2734365 -1.750964
-0.73278499 9.3529358 -1.775629
-0.726147 9.4157104 -1.726528
-0.71531498 9.5179443 -1.7232
-0.66365498 9.2837982 -1.749578
-0.53720897 9.4538116 -1.720884
-0.77975303 9.5050201 -1.7250659
-0.53975302 9.503067 -1.794441
-0.68109 9.496994 -1.7500269
-0.6882 9.4006653 -1.7266411
-0.58644301 9.5524292 -1.718695
-0.59520799 9.3023682 -1.747453
-0.789563 9.3994904 -1.72881
-0.625956 9.4245605 -1.723549
-0.65097803 9.5310974 -1.7213351
-0.61321902 9.48349 -1.804484
-1.030753 9.6065826 -1.809628
-1.039023 9.6716614 -1.734632
-0.86820298 9.5668945 -1.805012
-1.001242 9.8277435 -1.758667
-0.99676502 9.7511902 -1.728961
