# .PCD v0.7 - Point Cloud Data file format
VERSION 0.7
FIELDS x y z
SIZE 4 4 4
TYPE F F F
COUNT 1 1 1
WIDTH 1602
HEIGHT 1
VIEWPOINT 0 0 0 1 0 0 0
POINTS 1602
DATA ascii
35.729477 88.748581 -1.723544
35.748562 88.971176 -1.783303
35.755074 88.877274 -1.889132
35.568481 88.756332 -1.704541
35.694096 88.796555 -1.722586
35.715939 88.92775 -1.899493
35.838196 88.753952 -1.752839
35.793022 88.84877 -1.7838579
35.796303 88.93074 -1.782173
35.752327 88.829575 -1.776282
35.814445 89.047958 -1.721053
35.635326 88.837296 -1.871721
35.637318 88.901352 -1.719004
35.626125 88.96434 -1.715132
35.665607 88.848892 -1.720794
35.83939 88.992294 -1.723268
35.598251 89.016891 -1.7133451
35.909473 88.619644 -1.644032
35.932018 88.722672 -1.719578
35.884338 88.711655 -1.727554
36.102081 88.583084 -1.665525
35.89085 88.542496 -1.63377
35.851753 88.65126 -1.782729
35.990631 88.689163 -1.652504
35.963097 88.69899 -1.7025141
35.959583 88.624466 -1.615721
36.042263 88.676498 -1.648538
35.995422 88.47023 -1.785928
36.145363 88.711166 -1.707814
36.030117 88.600082 -1.803317
36.125221 88.516098 -1.749766
36.155392 88.579208 -1.575299
36.11446 88.452011 -1.594987
35.985641 88.444199 -1.569739
35.944782 88.512527 -1.579814
35.87772 88.4496 -1.576341
35.875099 88.550064 -1.5816669
36.055237 88.500473 -1.573912
36.122952 88.669357 -1.600474
36.064831 88.605515 -1.579108
36.068146 88.449844 -1.56525
36.05196 88.775528 -1.695329
35.909 88.989517 -1.725396
35.940235 88.944229 -1.75128
36.151646 88.939713 -1.77336
35.977341 89.017624 -1.799692
36.068905 88.873672 -1.808211
36.044773 88.920334 -1.804664
36.136196 88.748123 -1.678126
36.055187 88.971634 -1.8393919
36.109932 88.902267 -1.767148
35.912239 88.913193 -1.730227
35.999649 88.757919 -1.70497
35.928932 88.834213 -1.728274
35.938709 88.782944 -1.73508
35.980953 88.875259 -1.728019
35.999302 88.805313 -1.72296
36.111435 88.955276 -1.8192739
35.857777 88.93251 -1.726306
35.879776 88.874863 -1.728935
35.859768 88.822739 -1.814257
35.890656 88.776138 -1.7411031
36.008804 88.896561 -1.80132
35.997677 88.990921 -1.8007849
35.631336 89.139389 -1.779039
35.697327 89.061142 -1.7796251
35.841293 89.106247 -1.7224
35.63797 89.294937 -1.716536
35.643211 89.21553 -1.8605109
35.816456 89.330612 -1.9029551
35.731091 89.138962 -1.720723
35.710121 89.196976 -1.7181
35.689377 89.25499 -1.7154779
35.732716 89.35466 -1.713825
35.792641 89.221817 -1.903406
35.814671 89.168747 -1.720163
35.809254 89.112198 -1.748878
35.649384 89.272629 -1.789147
35.580906 89.318466 -1.829073
35.557102 89.262772 -1.7748899
35.567165 89.067459 -1.711973
35.752277 89.081009 -1.723348
35.781338 89.227371 -1.7186641
35.755169 89.290024 -1.716428
35.675587 89.341843 -1.742105
35.674557 89.476425 -1.710094
35.778847 89.409103 -1.8549351
35.631367 89.36116 -1.712283
35.600922 89.413406 -1.710889
35.847202 89.480698 -1.902422
35.828537 89.410721 -1.852537
35.693058 89.409744 -1.713063
35.80476 89.488144 -1.8717951
35.554436 89.410049 -1.785104
35.836342 89.538559 -1.897005
36.008282 89.105423 -1.8351721
36.087986 89.202133 -1.716934
35.886459 89.16066 -1.833722
35.892288 89.057785 -1.722049
36.064644 89.26741 -1.714371
35.922173 89.146835 -1.833266
35.914204 89.221542 -1.861437
35.879066 89.217209 -1.862107
36.038067 89.330795 -1.712173
35.945095 89.128067 -1.836192
35.978535 89.216202 -1.86691
35.971626 89.336197 -1.880614
36.122902 89.333481 -1.797024
35.895912 89.302841 -1.868055
36.1138 89.273758 -1.871315
36.113708 89.224197 -1.750994
36.149223 89.079666 -1.720605
36.050869 89.083511 -1.836777
36.149609 89.158646 -1.715488
35.984249 89.421951 -1.7216491
36.060959 89.477737 -1.825654
36.07378 89.392075 -1.795071
35.942268 89.511856 -1.707402
35.933815 89.400131 -1.855041
36.15287 89.365311 -1.702961
36.139023 89.427597 -1.699633
36.146477 89.554855 -1.7070481
36.115124 89.483841 -1.69752
36.091431 89.540146 -1.695408
36.11327 89.603287 -1.706118
35.884144 89.397171 -1.857451
36.015213 89.396194 -1.709613
35.992611 89.461624 -1.707055
36.004189 89.53035 -1.886161
36.243797 88.707657 -1.612694
36.344715 88.528732 -1.652064
36.303555 88.61644 -1.747712
36.230911 88.521164 -1.660115
36.428135 88.49559 -1.647337
36.201931 88.721878 -1.641121
36.345184 88.738968 -1.831792
36.397526 88.565781 -1.561676
36.453159 88.603989 -1.582842
36.413124 88.702927 -1.579219
36.369007 88.457565 -1.5578099
36.296051 88.491013 -1.56004
36.336712 88.556839 -1.5930181
36.24593 88.553421 -1.57148
36.25285 88.608231 -1.596428
36.220345 88.65654 -1.595082
36.361317 88.611404 -1.58865
36.179111 88.497513 -1.5666471
36.325417 88.721909 -1.583674
36.26128 88.756882 -1.663589
36.259026 88.853226 -1.701462
36.253017 88.902756 -1.725019
36.452023 88.985611 -1.72613
36.160229 88.809494 -1.701261
36.169647 88.859451 -1.7877541
36.173286 89.014572 -1.7231719
36.224106 88.827469 -1.689743
36.221649 88.963608 -1.723182
36.192146 89.04509 -1.7577029
36.389519 88.997391 -1.7784719
36.400597 88.947464 -1.714206
36.419804 88.887711 -1.7171381
36.392727 88.771194 -1.624368
36.447838 88.769394 -1.620615
36.384495 88.796799 -1.648954
36.385334 88.848587 -1.68014
36.372814 88.928421 -1.779379
36.239204 88.997849 -1.757587
36.368145 88.998795 -1.712903
36.318111 88.773483 -1.639298
36.31237 88.826645 -1.685703
36.335129 88.986252 -1.825812
36.333191 88.907059 -1.748093
36.744095 88.573288 -1.767668
36.749588 88.706314 -1.737443
36.507774 88.464676 -1.623626
36.529366 88.645767 -1.659457
36.654278 88.557693 -1.655219
36.576248 88.633652 -1.64426
36.606071 88.470291 -1.733187
36.584427 88.450333 -1.700953
36.586994 88.536026 -1.771047
36.591709 88.525589 -1.5526479
36.668472 88.493576 -1.550115
36.510014 88.736923 -1.588847
36.608437 88.679459 -1.56809
36.640347 88.652023 -1.571928
36.538319 88.592606 -1.577817
36.501415 88.549606 -1.5565031
36.738537 88.457687 -1.548241
36.688793 88.557571 -1.570125
36.705933 88.668564 -1.562507
36.487755 88.509232 -1.58629
36.480675 88.671524 -1.576939
36.547302 88.798691 -1.634364
36.553665 88.881271 -1.788529
36.478783 88.883286 -1.7597769
36.48428 88.934311 -1.77423
36.582722 88.749374 -1.6127321
36.76136 89.006149 -1.703658
36.657616 88.849289 -1.622117
36.696804 88.876389 -1.643785
36.707546 88.928177 -1.659712
36.555061 88.937332 -1.703557
36.708313 88.998123 -1.7186559
36.499271 88.822586 -1.636525
36.53698 88.875626 -1.7053159
36.510296 88.973679 -1.721269
36.727093 89.046097 -1.771787
36.669289 88.983139 -1.760287
36.64856 88.922653 -1.687777
36.608562 88.808731 -1.606007
36.603531 88.86882 -1.652485
36.673737 88.75386 -1.654027
36.625759 88.955154 -1.691538
36.767452 88.807022 -1.625392
36.725731 88.802261 -1.585616
36.728466 88.75322 -1.601679
36.281006 89.293869 -1.715906
36.362488 89.210281 -1.733219
36.340408 89.123459 -1.7241859
36.339249 89.052353 -1.711193
36.29406 89.129501 -1.7598881
36.445778 89.124863 -1.733153
36.250336 89.211441 -1.70647
36.25032 89.343826 -1.714554
36.330822 89.343704 -1.726492
36.305096 89.239822 -1.718101
36.322639 89.181625 -1.7211421
36.373928 89.322525 -1.725789
36.2733 89.082993 -1.7139519
36.248108 89.138931 -1.711834
36.201118 89.323441 -1.7022409
36.218807 89.26329 -1.705166
36.216522 89.189011 -1.873408
36.426636 89.333817 -1.86892
36.425339 89.272354 -1.725338
36.418121 89.188736 -1.73106
36.395393 89.088699 -1.722579
36.424198 89.412857 -1.8061889
36.413296 89.47197 -1.87037
36.428146 89.532303 -1.887622
36.219814 89.393906 -1.713203
36.192894 89.446121 -1.711431
36.401196 89.581467 -1.847694
36.294643 89.398575 -1.7254159
36.262108 89.455551 -1.723959
36.30434 89.520615 -1.7184401
36.374825 89.402115 -1.7208
36.292137 89.592453 -1.714908
36.341225 89.462265 -1.719439
36.456745 89.36998 -1.80962
36.44479 89.479294 -1.906289
36.229782 89.512619 -1.722502
36.218517 89.581436 -1.718765
36.166161 89.498428 -1.709659
36.620068 89.064804 -1.775279
36.607918 89.113754 -1.810343
36.596176 89.27034 -1.808538
36.711998 89.314346 -1.71557
36.705891 89.206467 -1.8796051
36.715904 89.123001 -1.792773
36.578785 89.062424 -1.778921
36.476181 89.321884 -1.906285
36.756664 89.156693 -1.728429
36.479176 89.263046 -1.833766
36.750099 89.268417 -1.716001
36.48745 89.069107 -1.733791
36.568077 89.175766 -1.804656
36.648613 89.324326 -1.724896
36.658077 89.252914 -1.7289619
36.685005 89.191544 -1.7311471
36.674179 89.103134 -1.796532
36.498375 89.337692 -1.809693
36.494896 89.241928 -1.803156
36.533497 89.200455 -1.805102
36.51796 89.085464 -1.800377
36.605412 89.526199 -1.708403
36.63501 89.59877 -1.825783
36.504826 89.624435 -1.715497
36.494389 89.391678 -1.864233
36.565269 89.639664 -1.703364
36.578392 89.578842 -1.7067159
36.542278 89.493149 -1.721357
36.585312 89.406204 -1.862375
36.755383 89.54686 -1.757758
36.484982 89.564529 -1.8541631
36.6702 89.427383 -1.710523
36.650463 89.517838 -1.7939889
36.662262 89.588577 -1.824865
36.681404 89.656784 -1.755257
36.636021 89.475693 -1.709672
36.611824 89.379807 -1.723842
36.694382 89.37291 -1.712628
36.513008 89.4991 -1.906149
36.703781 89.618515 -1.75647
36.69059 89.471909 -1.795426
36.289345 89.69133 -1.96179
36.424408 89.68898 -1.932129
36.640324 89.735733 -1.7522629
36.760471 89.800858 -1.796887
36.535229 89.690445 -1.702095
36.741207 89.713608 -1.6937079
36.539989 89.708298 -1.903385
36.717758 89.769516 -1.6915849
36.469055 89.680466 -1.714444
36.961731 89.3535 -1.9274319
36.791626 89.496048 -1.9460239
37.885632 89.618973 -1.989146
37.17218 89.445633 -1.921108
37.20715 89.494553 -1.934916
37.969238 89.631485 -1.919311
37.291714 89.414871 -1.912537
36.972473 88.733109 -1.764119
36.815727 88.575699 -1.61227
37.043419 88.71666 -1.724566
37.061092 88.568161 -1.610278
36.889763 88.517715 -1.611063
36.861038 88.679916 -1.617413
36.884533 88.743088 -1.579546
36.835472 88.699722 -1.59886
37.03019 88.512955 -1.552363
36.908329 88.579514 -1.555562
36.889721 88.665573 -1.5698251
36.900749 88.735275 -1.590771
36.850796 88.615433 -1.556787
36.839653 88.454941 -1.567701
37.004421 88.739578 -1.5723619
36.796871 88.494278 -1.567582
37.037342 88.606003 -1.564631
36.96262 88.541641 -1.554697
36.780029 88.642899 -1.559468
36.9585 88.632339 -1.567758
37.027119 88.687149 -1.585567
37.050575 88.872025 -1.770962
36.978004 88.953415 -1.614012
37.050102 89.021439 -1.773847
36.848331 88.976089 -1.6806329
36.937492 88.926712 -1.646274
36.948101 88.877182 -1.630469
36.869354 88.80394 -1.732172
37.024952 88.994247 -1.70893
36.83503 88.894943 -1.612141
36.793053 88.970322 -1.687789
36.881927 88.900742 -1.664991
36.798477 89.019241 -1.702687
36.861343 88.845505 -1.6079119
36.774025 88.917587 -1.787284
36.779427 88.860336 -1.61261
36.781406 88.757767 -1.584994
36.819569 88.747391 -1.595616
37.011265 88.928848 -1.598411
37.028267 88.819443 -1.598083
36.945744 88.784012 -1.5922
36.904625 88.848251 -1.603353
37.049282 88.779007 -1.5855989
37.159042 88.496567 -1.608484
37.080326 88.497787 -1.6449749
37.087177 88.44014 -1.755126
37.163544 88.693314 -1.738072
37.125706 88.532181 -1.756941
37.299927 88.551468 -1.573707
37.322823 88.48494 -1.555208
37.290695 88.697556 -1.598466
37.09449 88.482407 -1.550388
37.188354 88.550217 -1.559056
37.27206 88.494125 -1.5841351
37.156746 88.642654 -1.579927
37.237309 88.505295 -1.55907
37.110676 88.728287 -1.5665441
37.098415 88.669357 -1.581929
37.109512 88.575729 -1.562199
37.351967 88.521194 -1.572512
37.208649 88.611618 -1.5787441
37.193298 88.70256 -1.5631289
37.251156 88.584305 -1.574487
37.282608 88.681625 -1.559015
37.355152 88.650345 -1.55662
37.217655 88.765427 -1.695648
37.29089 88.95192 -1.631013
37.219627 88.927719 -1.748576
37.194691 89.025955 -1.633974
37.324013 88.846451 -1.606014
37.251518 88.94368 -1.609525
37.089916 88.789352 -1.664024
37.110962 89.025497 -1.6411
37.088112 88.961899 -1.605198
37.173443 88.750565 -1.61443
37.281273 88.785324 -1.636301
37.181835 88.969864 -1.612496
37.139492 88.826279 -1.589726
37.362545 88.813553 -1.5768369
37.374294 88.953079 -1.600325
37.119507 88.885361 -1.579208
37.361153 88.997086 -1.587747
37.272793 88.836502 -1.581
37.319431 88.897385 -1.580595
37.220276 88.865707 -1.5742
37.25563 89.007889 -1.593824
36.809284 89.326767 -1.901657
36.809933 89.166397 -1.718956
36.816448 89.07515 -1.755116
37.057579 89.099411 -1.707518
36.850864 89.325058 -1.76616
37.019199 89.318619 -1.728567
36.871822 89.19841 -1.79194
36.771507 89.212082 -1.718526
36.870495 89.064774 -1.72191
36.841797 89.116623 -1.7202229
36.787365 89.097672 -1.730235
36.944313 89.286728 -1.742708
36.972309 89.227402 -1.812332
36.97559 89.112289 -1.7302589
37.002682 89.078903 -1.718049
37.02417 89.181412 -1.710459
37.012207 89.24501 -1.706695
36.947575 89.058731 -1.728577
36.927513 89.105362 -1.736171
36.913197 89.233444 -1.768613
36.898872 89.278183 -1.765692
36.931507 89.336594 -1.70613
36.903248 89.389908 -1.704414
36.923748 89.490952 -1.803013
36.911785 89.542221 -1.720603
36.904308 89.60939 -1.716398
37.039425 89.506241 -1.758635
36.992859 89.584122 -1.75605
37.007347 89.383682 -1.724757
37.070778 89.4272 -1.762349
36.846256 89.402603 -1.7969379
36.878582 89.445389 -1.702289
36.771767 89.504166 -1.7601089
36.860947 89.50502 -1.699348
36.958263 89.426163 -1.725391
36.963951 89.501511 -1.719568
36.956867 89.613998 -1.7569799
36.792519 89.41951 -1.763135
36.836708 89.560593 -1.697224
36.809265 89.614182 -1.69551
36.864986 89.61171 -1.89395
37.154335 89.126175 -1.6906019
37.181576 89.227463 -1.770467
37.176155 89.280197 -1.765826
37.165813 89.329697 -1.8786139
37.322273 89.133469 -1.662331
37.31514 89.244064 -1.721581
37.297073 89.300827 -1.718624
37.237507 89.299942 -1.722568
37.076687 89.143417 -1.7093019
37.082142 89.284836 -1.726312
37.3414 89.344803 -1.7953629
37.358372 89.157364 -1.6825579
37.339813 89.099686 -1.760578
37.321266 89.07811 -1.652555
37.266872 89.150375 -1.694759
37.104794 89.11116 -1.699477
37.123852 89.165451 -1.731913
37.094429 89.219894 -1.730124
37.219433 89.102158 -1.676125
37.227303 89.161392 -1.7176811
37.279079 89.245255 -1.723119
37.136166 89.306686 -1.767329
37.075813 89.343796 -1.807235
37.228222 89.225357 -1.778984
37.275887 89.355484 -1.7161011
37.099003 89.650894 -1.707855
37.24839 89.517319 -1.7978621
37.12579 89.600021 -1.709517
37.277031 89.635147 -1.796466
37.114429 89.375198 -1.762886
37.342209 89.438156 -1.797631
37.377373 89.503891 -1.711066
37.298653 89.365219 -1.851831
37.157711 89.634048 -1.90914
37.231434 89.395218 -1.716594
37.207264 89.447891 -1.714502
37.189781 89.588669 -1.794735
37.156139 89.551315 -1.710748
37.176552 89.496414 -1.7132699
37.349678 89.555679 -1.709373
37.29826 89.661545 -1.705568
37.316044 89.531296 -1.909541
37.297886 89.480362 -1.796921
37.608124 88.559586 -1.630396
37.522968 88.488724 -1.787715
37.67046 88.517471 -1.629415
37.53532 88.617905 -1.630527
37.650921 88.681168 -1.567323
37.570126 88.645248 -1.573765
37.581291 88.715317 -1.569453
37.490036 88.691513 -1.575677
37.656097 88.579239 -1.5681289
37.446667 88.454269 -1.571348
37.463699 88.564804 -1.555622
37.472412 88.736923 -1.603743
37.614021 88.694931 -1.597006
37.404068 88.491196 -1.571313
37.411037 88.608536 -1.55595
37.589233 88.491348 -1.552873
37.546356 88.541122 -1.552169
37.610088 88.614975 -1.568455
37.400307 88.73143 -1.578793
37.588417 88.927139 -1.612479
37.422203 88.793015 -1.660472
37.556347 88.775406 -1.668087
37.472698 89.025162 -1.668568
37.667088 88.919907 -1.755934
37.442162 88.784683 -1.5736949
37.612507 88.786484 -1.555065
37.632584 88.97084 -1.57997
37.549187 88.827133 -1.556451
37.475784 88.861801 -1.55883
37.473652 88.947708 -1.593832
37.602772 88.89183 -1.588991
37.432873 88.965622 -1.5852211
37.652576 88.854263 -1.588315
37.585278 88.985886 -1.574127
37.427486 88.891678 -1.574026
37.385456 88.886368 -1.562865
37.518707 88.875748 -1.5692559
37.511703 88.749832 -1.571577
37.896667 88.695816 -1.750827
37.730602 88.653946 -1.564154
37.874222 88.602798 -1.574017
37.821888 88.701126 -1.56199
37.839809 88.690201 -1.547207
37.766254 88.723343 -1.54961
37.829029 88.635727 -1.574478
37.935257 88.582169 -1.571427
37.900021 88.648788 -1.546134
37.826851 88.558884 -1.5643491
37.702198 88.543747 -1.5678
37.751583 88.510818 -1.567062
37.770336 88.600815 -1.565114
37.940323 88.594528 -1.5470639
37.945156 88.699905 -1.57979
37.780746 88.666489 -1.5753599
37.97456 88.896957 -1.751348
37.687695 88.776962 -1.780022
37.837696 88.982346 -1.625754
37.889709 88.848495 -1.764938
37.887123 88.763382 -1.604226
37.865036 88.952286 -1.6262161
37.924892 88.984268 -1.750425
37.756733 89.018967 -1.629981
37.879448 88.995956 -1.591399
37.960674 88.764542 -1.5802391
37.715588 88.825974 -1.586074
37.768814 88.791183 -1.584999
37.769562 88.887131 -1.5889519
37.758595 88.94487 -1.56581
37.721245 88.920395 -1.589769
37.95005 88.968887 -1.588629
37.88176 88.873001 -1.5628231
37.853985 88.822281 -1.583127
37.911346 88.899673 -1.56748
37.692738 88.756851 -1.552007
37.838425 88.768082 -1.581965
37.908913 88.794449 -1.581476
37.820145 88.908798 -1.564319
37.687054 88.974808 -1.568367
37.950081 88.841934 -1.560606
37.821182 88.85643 -1.587714
37.586113 89.086746 -1.640128
37.577457 89.206589 -1.70222
37.562263 89.259476 -1.711977
37.506733 89.308395 -1.715722
37.396507 89.339157 -1.806318
37.661293 89.14296 -1.614158
37.656609 89.283127 -1.695911
37.385929 89.263046 -1.735652
37.451969 89.247665 -1.7735291
37.609512 89.271164 -1.703946
37.609936 89.139877 -1.622009
37.454243 89.178879 -1.685302
37.433033 89.264633 -1.731622
37.391735 89.204697 -1.688207
37.400558 89.145004 -1.653098
37.45166 89.087173 -1.6319211
37.40556 89.060165 -1.618584
37.534733 89.189835 -1.691687
37.575092 89.150894 -1.611984
37.511909 89.078293 -1.602427
37.61681 89.084549 -1.598698
37.624664 89.512314 -1.803961
37.401886 89.450089 -1.713181
37.42765 89.599045 -1.729924
37.573616 89.582077 -1.798632
37.584404 89.507278 -1.785988
37.613609 89.459763 -1.788309
37.613663 89.361435 -1.733315
37.623344 89.636368 -1.7288769
37.643124 89.570938 -1.731637
37.670094 89.478928 -1.8036259
37.485031 89.364059 -1.713186
37.450111 89.41124 -1.71234
37.443752 89.468582 -1.79769
37.472679 89.556229 -1.729606
37.474457 89.63002 -1.7845581
37.656906 89.40773 -1.77551
37.581539 89.412064 -1.731972
37.536098 89.454361 -1.7322969
37.488728 89.657913 -1.877286
37.521091 89.607468 -1.801657
37.537647 89.539352 -1.787815
37.858147 89.233719 -1.626249
37.883282 89.301132 -1.793666
37.852932 89.353104 -1.699747
37.979809 89.324295 -1.6490051
37.941151 89.193954 -1.606704
37.689953 89.244583 -1.686783
37.887543 89.134018 -1.605567
37.89753 89.216263 -1.628131
37.830208 89.160172 -1.607736
37.923721 89.266068 -1.639619
37.795986 89.278183 -1.67248
37.758965 89.295853 -1.6808079
37.75835 89.23735 -1.7206841
37.706032 89.298355 -1.687041
37.929325 89.327988 -1.678735
37.779606 89.084488 -1.5849921
37.814827 89.054123 -1.587813
37.947308 89.061142 -1.578805
37.879307 89.067703 -1.579699
37.815628 89.108963 -1.597571
37.70573 89.062698 -1.594324
37.945843 89.1306 -1.58645
37.692688 89.161758 -1.602544
37.700207 89.114334 -1.588209
37.804508 89.515549 -1.7131211
37.78944 89.425888 -1.7304749
37.810074 89.360825 -1.733236
37.697483 89.525742 -1.730623
37.812656 89.63475 -1.794549
37.899632 89.525894 -1.800366
37.688244 89.658585 -1.7115149
37.908855 89.596725 -1.709536
37.720055 89.606583 -1.712865
37.71022 89.360489 -1.772081
37.72121 89.43129 -1.8008929
37.755699 89.363144 -1.764671
37.730003 89.482681 -1.816703
37.843002 89.520859 -1.770893
37.853691 89.474503 -1.712431
37.755371 89.482834 -1.729228
37.745274 89.550522 -1.715029
37.778275 89.595047 -1.77008
37.785118 89.650345 -1.795823
37.869312 89.412491 -1.7158149
37.987141 89.40416 -1.695014
37.978939 89.495499 -1.7846121
37.956467 89.559799 -1.708595
37.945175 90.081406 -1.949348
37.17984 89.708359 -1.910681
37.602055 90.037399 -1.938326
36.834023 89.68718 -1.806929
36.821468 89.774918 -1.71104
36.92593 89.814865 -1.895377
36.989231 89.682877 -1.871526
37.009922 89.727676 -1.855122
37.023159 89.806046 -1.702444
36.993698 89.855179 -1.701212
36.951534 89.738419 -1.850893
37.068996 89.699783 -1.706623
37.039169 89.748764 -1.70539
36.970829 89.835709 -1.736752
36.873058 89.662491 -1.715014
36.85577 89.723648 -1.712021
36.891697 89.733932 -1.75255
36.846821 89.812698 -1.749971
37.303886 89.874527 -1.719453
37.354828 89.765366 -1.72339
37.280437 89.930222 -1.717278
37.113636 89.731155 -1.852909
37.110542 89.781204 -1.824393
37.341248 89.827011 -1.719969
37.116062 89.851822 -1.788854
37.370262 89.879501 -1.718412
37.090752 89.896378 -1.786397
37.32674 89.933884 -1.7181261
37.271141 89.713577 -1.7038749
37.247627 89.767715 -1.701763
37.203979 89.727829 -1.793602
37.214058 89.815811 -1.700911
37.253704 89.876602 -1.794281
37.287327 89.830612 -1.79708
37.146133 89.811203 -1.790184
37.194351 89.872147 -1.69838
37.670254 89.718887 -1.708541
37.507389 89.952225 -1.71736
37.536354 89.892471 -1.718984
37.499641 89.736496 -1.808309
37.645664 89.775131 -1.70638
37.652992 89.92659 -1.825188
37.621075 89.711746 -1.724234
37.62154 89.949326 -1.822996
37.54285 89.68602 -1.811649
37.588005 89.769272 -1.722986
37.575928 89.838669 -1.719479
37.555981 89.934189 -1.701924
37.617867 89.829391 -1.704625
37.453045 89.902481 -1.885964
37.597126 89.887802 -1.70206
37.466267 89.813187 -1.874182
37.426998 89.668839 -1.724835
37.399364 89.722153 -1.723074
37.396526 89.815628 -1.720517
37.406136 89.908096 -1.850323
37.405205 89.970779 -1.9017349
37.416771 90.022263 -1.901533
37.542538 89.996719 -1.698552
37.681171 89.990524 -1.697942
37.855095 89.778305 -1.860986
37.873962 89.900681 -1.721035
37.958897 89.89711 -1.698185
37.966496 89.830063 -1.702312
37.9697 89.68602 -1.729682
37.984619 89.769089 -1.705241
37.900986 89.848984 -1.7227679
37.921425 89.793228 -1.7253571
37.837437 89.686111 -1.708373
37.810368 89.736313 -1.706706
37.802391 89.932968 -1.785807
37.79361 89.792892 -1.703741
37.70052 89.935806 -1.700472
37.764694 89.966354 -1.786346
37.721622 89.710434 -1.856884
37.917255 89.943954 -1.6980619
37.766926 89.843216 -1.702076
37.758663 89.75383 -1.864408
37.894199 90.143936 -1.893757
37.912682 90.050278 -1.797287
37.990051 90.148422 -1.705009
37.776924 90.046036 -1.717971
37.736046 90.007736 -1.784616
37.810246 89.998123 -1.718851
37.807014 90.093491 -1.696087
37.849979 90.116837 -1.794452
37.848194 90.046158 -1.696214
37.865444 89.98497 -1.699138
37.94529 90.150436 -1.776824
37.979137 90.007614 -1.7951829
38.250206 88.723709 -1.818125
38.165096 88.644882 -1.575663
38.145332 88.744156 -1.554992
38.256004 88.667068 -1.5533791
38.200623 88.70549 -1.554188
38.12635 88.637314 -1.597603
38.129002 88.685806 -1.574825
38.067551 88.707809 -1.577332
38.058628 88.637405 -1.576812
38.025269 88.744339 -1.577324
37.998631 88.666183 -1.5786951
38.130718 88.941208 -1.70231
38.133018 88.876999 -1.764027
38.177849 89.010483 -1.767284
38.276295 88.807632 -1.661675
38.036289 88.854965 -1.741207
38.044098 89.037796 -1.755191
38.021187 88.995956 -1.753567
38.231621 88.937698 -1.5686049
38.194683 89.031479 -1.562032
38.038662 88.817795 -1.56489
38.193108 88.837296 -1.581995
38.290295 88.899521 -1.567376
38.074776 88.904709 -1.584947
38.014046 88.937729 -1.586604
38.096741 88.787521 -1.555075
38.251419 88.872787 -1.575902
38.256271 88.951004 -1.5902081
38.260487 88.995499 -1.560156
38.138851 88.874191 -1.582909
38.011806 88.806808 -1.559099
38.156326 88.965286 -1.571609
38.35635 88.728073 -1.5792249
38.410244 88.747238 -1.738956
38.457764 89.000992 -1.698072
38.528797 89.033127 -1.648574
38.331341 89.035751 -1.741963
38.575943 89.01918 -1.645704
38.481621 89.047348 -1.6514421
38.450947 88.753433 -1.571508
38.30513 88.766495 -1.579775
38.479992 88.795639 -1.562235
38.446045 88.953506 -1.574362
38.554462 88.902939 -1.570784
38.554588 88.830032 -1.562533
38.398254 88.983932 -1.575285
38.353535 88.992661 -1.578775
38.352367 88.863846 -1.565786
38.53236 88.754166 -1.561703
38.376526 88.787888 -1.573754
38.514263 88.848221 -1.5536391
38.497066 88.925674 -1.573005
38.395584 88.926682 -1.556041
38.319649 88.95549 -1.558966
38.43824 88.876358 -1.5565749
38.41119 88.826248 -1.564548
38.318974 88.833389 -1.574332
38.145741 89.297897 -1.606946
38.134903 89.195755 -1.609838
38.093246 89.259048 -1.644447
38.06284 89.266281 -1.754402
38.094078 89.319321 -1.620231
38.036419 89.276779 -1.611618
38.028645 89.181534 -1.7545069
38.218399 89.18663 -1.658892
38.246437 89.122177 -1.77504
38.290264 89.241745 -1.626651
38.104378 89.105362 -1.5769041
38.086456 89.142624 -1.590082
38.112118 89.057175 -1.56563
38.295456 89.17424 -1.585605
38.019405 89.07692 -1.570256
38.204098 89.095291 -1.585259
38.233616 89.321793 -1.59576
38.15593 89.073868 -1.575616
38.261269 89.206863 -1.600351
38.159801 89.129257 -1.585746
38.26107 89.363663 -1.604532
38.251278 89.443985 -1.677991
38.28009 89.494736 -1.740042
38.10815 89.368973 -1.6649719
38.108997 89.428635 -1.698396
38.127136 89.567429 -1.708932
38.257694 89.546219 -1.77902
38.252029 89.621109 -1.795493
38.297276 89.407547 -1.654042
38.291531 89.457199 -1.706759
38.016052 89.391861 -1.760831
38.236931 89.398239 -1.647325
38.203171 89.452682 -1.682472
38.214874 89.492477 -1.769111
37.998783 89.451706 -1.713661
38.054588 89.357498 -1.669526
38.075691 89.486771 -1.765674
38.040165 89.569992 -1.793007
38.052551 89.63298 -1.739854
38.014164 89.506699 -1.76156
38.016026 89.600571 -1.8670779
38.024971 89.649307 -1.710703
38.16116 89.390213 -1.655625
38.156158 89.440536 -1.690436
38.156441 89.513107 -1.710658
38.15836 89.574539 -1.777169
38.121754 89.636429 -1.704393
38.222843 89.596603 -1.799477
38.349205 89.127426 -1.653363
38.595627 89.080887 -1.747345
38.424633 89.221268 -1.744346
38.411598 89.082474 -1.653547
38.457539 89.319565 -1.7424639
38.537148 89.240005 -1.5822721
38.503952 89.32637 -1.589553
38.453831 89.247025 -1.587903
38.464111 89.12645 -1.592316
38.408737 89.166245 -1.579005
38.563271 89.299637 -1.575518
38.434437 89.294327 -1.584299
38.564331 89.107193 -1.573029
38.515148 89.154617 -1.573083
38.578415 89.203201 -1.582147
38.366146 89.327866 -1.586648
38.344524 89.196548 -1.599434
38.360657 89.247635 -1.594795
38.403011 89.594803 -1.771724
38.594303 89.544632 -1.689136
38.59837 89.495255 -1.644068
38.427319 89.493607 -1.686004
38.428394 89.444321 -1.639565
38.422981 89.396683 -1.6345
38.383255 89.424423 -1.623769
38.476784 89.494308 -1.680132
38.446945 89.544449 -1.687045
38.489635 89.649765 -1.782462
38.509964 89.419327 -1.611591
38.520451 89.494156 -1.682639
38.503426 89.552261 -1.777303
38.308292 89.520828 -1.777277
38.314106 89.583298 -1.721524
38.299015 89.643845 -1.718115
38.451359 89.620865 -1.720471
38.543812 89.41011 -1.633008
38.555016 89.477737 -1.750142
38.553703 89.57933 -1.726348
38.346821 89.638596 -1.694114
38.37801 89.578262 -1.6958719
38.356983 89.473343 -1.6821181
38.442394 89.39003 -1.588256
38.799259 88.859116 -1.648327
38.663654 88.958023 -1.646258
38.905785 89.027725 -1.748764
38.77634 88.797073 -1.650995
38.611244 88.989944 -1.646651
38.742825 88.953812 -1.783589
38.864452 88.820175 -1.6441081
38.723228 88.935989 -1.643571
38.724129 88.797989 -1.568494
38.697708 88.998367 -1.5859081
38.766079 89.001083 -1.567304
38.709923 89.04335 -1.568063
38.646496 88.779831 -1.549832
38.872047 88.912979 -1.566469
38.659519 88.827774 -1.570531
38.844078 89.009293 -1.5744539
38.812347 88.95253 -1.567582
38.640869 89.031082 -1.587324
38.606865 88.831558 -1.548961
39.191128 89.045425 -1.810342
39.211716 88.985611 -1.6586781
39.141312 88.93074 -1.611913
38.96059 88.922775 -1.654924
39.043568 88.893173 -1.569589
38.975971 88.863571 -1.580459
39.077034 89.003494 -1.580147
39.12141 88.961502 -1.5802751
39.106823 89.046402 -1.556795
39.188492 89.025589 -1.552948
38.934231 88.943527 -1.573308
38.938457 88.878128 -1.564656
39.188602 88.935898 -1.577711
38.998306 88.839188 -1.563534
39.003387 89.025162 -1.583468
38.988884 88.918198 -1.5714509
38.689518 89.23851 -1.620291
38.906212 89.332291 -1.793149
38.789368 89.124191 -1.665877
38.823051 89.329758 -1.604215
38.729568 89.165359 -1.662547
38.881012 89.248672 -1.655923
38.882717 89.080338 -1.619188
38.851414 89.139603 -1.58535
38.709457 89.109482 -1.576149
38.882019 89.336655 -1.590679
38.617401 89.337601 -1.5804
38.667969 89.145615 -1.576283
38.650524 89.083694 -1.569164
38.901978 89.101212 -1.584726
38.899723 89.212814 -1.55922
38.687046 89.24733 -1.588728
38.834862 89.246323 -1.56125
38.79105 89.171524 -1.587117
38.783436 89.288803 -1.5618449
38.813538 89.073776 -1.582487
38.747269 89.214859 -1.586969
38.767025 89.085373 -1.573887
38.623558 89.277908 -1.590863
38.698582 89.310013 -1.566008
38.626575 89.181931 -1.5764149
38.713715 89.500351 -1.608385
38.777813 89.468887 -1.605576
38.720814 89.584579 -1.663456
38.898834 89.590805 -1.6317869
38.894936 89.521408 -1.651826
38.649891 89.51207 -1.7693
38.671188 89.632278 -1.763368
38.803799 89.576767 -1.675593
38.783516 89.592697 -1.655519
38.640545 89.560745 -1.675243
38.773739 89.64473 -1.715932
38.604523 89.599472 -1.71627
38.85841 89.616287 -1.6625201
38.860397 89.560104 -1.631346
38.823353 89.509903 -1.5993429
38.62405 89.421463 -1.574941
38.874107 89.47905 -1.597955
38.806686 89.376297 -1.566394
38.902996 89.400406 -1.585784
38.669991 89.441116 -1.599725
38.69334 89.385025 -1.572898
38.741879 89.40892 -1.597111
39.046741 89.25856 -1.605673
39.013741 89.335617 -1.757697
38.957729 89.239212 -1.7529939
39.024231 89.199448 -1.738075
39.142502 89.351944 -1.547143
38.992401 89.276779 -1.587445
38.934963 89.265457 -1.601174
39.106495 89.173386 -1.596173
39.115906 89.227249 -1.582548
39.095039 89.291977 -1.576262
39.155033 89.271744 -1.573436
39.164776 89.193649 -1.5817339
39.182644 89.146957 -1.58117
38.946091 89.058517 -1.584865
38.948013 89.168655 -1.558977
39.204945 89.313583 -1.54574
39.205502 89.244614 -1.571916
39.061504 89.092087 -1.556689
39.043839 89.199997 -1.598513
39.20599 89.102615 -1.594689
39.044636 89.319626 -1.577772
39.013008 89.135757 -1.556939
39.011906 89.620651 -1.6533099
39.142948 89.569443 -1.762235
39.171741 89.500412 -1.6052361
38.962673 89.645126 -1.649635
39.064953 89.493423 -1.613699
39.042023 89.439529 -1.756795
39.089588 89.405472 -1.760775
39.110268 89.637863 -1.622584
39.051186 89.618546 -1.6129251
39.123695 89.530167 -1.6198879
39.007084 89.52092 -1.615831
39.032768 89.394272 -1.757753
39.021191 89.450333 -1.5891941
39.129013 89.586105 -1.586893
39.133461 89.464371 -1.579676
39.046429 89.369308 -1.551972
39.205059 89.553879 -1.5840811
39.145363 89.40654 -1.58481
38.947388 89.554672 -1.600391
38.947678 89.464493 -1.5935791
39.165558 89.626968 -1.603917
38.953667 89.389359 -1.556448
38.022598 89.815201 -1.9188319
39.185474 90.322952 -1.913125
39.174797 90.272751 -1.9128259
38.464142 89.804001 -1.912685
38.753834 90.186234 -1.914274
38.763901 90.247238 -1.91386
38.722031 89.972336 -1.917201
39.062988 90.05394 -1.929428
39.052128 90.147537 -1.924867
38.173317 89.844376 -1.712878
38.103657 89.833145 -1.861154
38.156467 89.684708 -1.833371
38.108322 89.878189 -1.800856
38.088165 89.941727 -1.78378
38.042839 89.863022 -1.871197
38.277428 89.70018 -1.715548
38.285099 89.759598 -1.6905971
38.264923 89.826187 -1.687748
38.280945 89.897141 -1.7576261
38.069309 89.714615 -1.798195
38.026798 89.72261 -1.705362
38.007904 89.908005 -1.85392
38.046501 89.810806 -1.861122
38.145725 89.896866 -1.711149
38.108116 89.943253 -1.710675
38.190945 89.785721 -1.7158639
38.227707 89.88295 -1.686716
38.204552 89.947678 -1.684232
38.256359 90.159378 -1.792876
38.238445 90.073288 -1.705453
38.207169 90.126907 -1.704226
38.080891 89.995926 -1.708946
38.060688 90.05275 -1.706381
38.259605 90.013687 -1.707875
38.270786 90.069107 -1.82092
38.098202 90.120987 -1.680766
38.023579 90.099503 -1.705904
38.016056 89.970779 -1.796665
38.164272 90.002731 -1.683561
38.145061 90.069534 -1.680715
38.176086 90.180679 -1.702999
38.436989 89.931564 -1.711956
38.396023 89.732986 -1.716812
38.298122 89.964279 -1.708305
38.365505 89.949875 -1.858793
38.514534 89.903946 -1.747426
38.31971 89.904861 -1.710729
38.334705 89.841354 -1.713955
38.602516 89.681351 -1.717573
38.495342 89.968063 -1.744563
38.339714 89.86879 -1.907661
38.370373 89.790207 -1.714783
38.324085 89.767166 -1.762115
38.319286 89.701065 -1.691992
38.51601 89.702682 -1.784781
38.506744 89.833633 -1.713707
38.372761 89.687973 -1.765275
38.56295 89.924149 -1.826622
38.547676 89.847916 -1.748731
38.541866 89.784866 -1.714582
38.475178 89.884598 -1.712419
38.45557 89.738205 -1.87842
38.453979 89.687241 -1.796926
38.551983 89.691055 -1.765223
38.469513 90.028244 -1.74248
38.440453 90.086502 -1.740787
38.482918 90.177048 -1.734305
38.581673 90.000076 -1.740935
38.570889 90.111984 -1.70614
38.562416 90.183334 -1.7021509
38.478329 90.26329 -1.70556
38.59293 90.229965 -1.848287
38.310169 90.263229 -1.900602
38.495136 90.221573 -1.704528
38.510685 90.134872 -1.735468
38.299824 90.198776 -1.703445
38.333725 90.149216 -1.704322
38.32988 90.037186 -1.82234
38.373165 90.051254 -1.902877
38.367786 90.099777 -1.705198
38.347584 90.25795 -1.736487
38.36562 90.193527 -1.739344
38.433006 89.999252 -1.707361
38.405216 90.2202 -1.899717
38.411606 90.144852 -1.739095
38.398609 90.048416 -1.706486
38.501076 90.300735 -1.699046
38.857975 89.904037 -1.722771
38.88636 89.823318 -1.7026449
38.823208 89.666245 -1.705469
38.6394 89.921677 -1.713617
38.683331 89.870438 -1.713856
38.688 89.815964 -1.861093
38.706902 89.701859 -1.770993
38.723995 89.817337 -1.714468
38.724049 89.874466 -1.715312
38.814381 89.727524 -1.7195539
38.832451 89.777969 -1.791283
38.762104 89.947586 -1.89843
38.764664 89.875473 -1.805668
38.754578 89.814957 -1.828989
38.747723 89.754227 -1.716961
38.65696 89.751999 -1.774986
38.898468 89.909592 -1.687919
38.893646 89.831192 -1.800781
38.807602 89.934006 -1.701051
38.683624 89.695724 -1.778481
38.838287 89.873581 -1.7027659
38.622169 89.891739 -1.829554
38.614845 89.821304 -1.771801
38.614555 89.736252 -1.751341
38.61977 89.987076 -1.710748
38.607307 90.056412 -1.707131
38.829559 90.029678 -1.685372
38.738239 90.216507 -1.680481
38.720303 90.117905 -1.695536
38.777122 89.994583 -1.699335
38.896873 90.172958 -1.7067699
38.736488 90.049301 -1.698717
38.766323 90.060867 -1.718773
38.805843 90.095749 -1.683032
38.664391 90.241562 -1.6917371
38.792812 90.167709 -1.6796269
38.663357 90.010605 -1.8622839
38.676598 90.170944 -1.695282
38.680508 90.080551 -1.8603179
38.867371 89.971542 -1.686291
38.843567 90.071762 -1.769513
38.859684 90.21846 -1.706369
38.972923 89.967026 -1.76697
38.950462 89.859726 -1.68741
38.941429 89.777328 -1.701785
38.947422 89.700912 -1.683044
39.051487 89.847061 -1.762857
39.071522 89.939316 -1.710463
39.12656 89.763992 -1.693403
39.088295 89.752609 -1.685961
39.127758 89.837326 -1.713812
39.060314 89.70195 -1.804243
39.145172 89.729477 -1.680464
39.110291 89.956039 -1.705323
38.929661 89.666519 -1.679583
39.023987 89.742508 -1.6895911
38.988842 89.802048 -1.688323
39.023369 89.844376 -1.785567
39.004677 89.940567 -1.766487
39.178673 89.853836 -1.707229
39.201332 89.927444 -1.781494
39.192024 89.828659 -1.7839839
39.196091 89.735397 -1.673768
39.152847 89.910141 -1.7052701
39.204803 89.673843 -1.60129
39.05302 90.194687 -1.719265
39.208782 89.986282 -1.7218699
39.007671 90.211105 -1.754172
39.007336 90.109238 -1.702661
39.035809 90.054611 -1.704219
39.206654 90.122116 -1.718709
39.183327 89.972549 -1.879644
39.168732 90.037643 -1.721318
39.041248 90.262589 -1.715614
39.145786 90.163376 -1.72042
38.935085 89.988663 -1.768696
38.920658 90.119278 -1.708871
39.091278 90.033432 -1.7957931
39.074654 90.102341 -1.753984
39.050892 89.991776 -1.7073849
38.923103 90.273697 -1.6979899
39.121986 90.085129 -1.721539
39.099438 90.146896 -1.719048
39.12994 90.230637 -1.717207
38.975578 90.016312 -1.712225
38.95816 90.074051 -1.709272
38.972221 90.159897 -1.701906
38.944134 90.214737 -1.700349
38.881668 90.320633 -1.698036
38.867943 90.383743 -1.694878
38.631538 90.300613 -1.690385
38.896675 90.409836 -1.745647
38.799408 90.318039 -1.7038651
38.757957 90.318039 -1.794202
38.772949 90.370041 -1.702189
38.715233 90.282791 -1.678141
38.692474 90.349136 -1.675801
38.952061 90.43486 -1.710847
38.973499 90.372757 -1.7133369
39.081699 90.355423 -1.712675
39.002094 90.314651 -1.715055
39.200077 90.283829 -1.7176
39.18998 90.34642 -1.713901
38.998699 90.398788 -1.844916
39.161179 90.385605 -1.850628
39.136349 90.451248 -1.710735
39.107433 90.293991 -1.714751
39.158108 90.440231 -1.758798
38.935425 90.326523 -1.749941
39.073574 90.42662 -1.708711
39.168713 90.4991 -1.709578
39.251019 89.0504 -1.647898
39.333035 89.0186 -1.750011
39.346901 89.002121 -1.5904191
39.305843 88.953568 -1.550267
39.411076 89.039505 -1.573719
39.253704 88.993942 -1.550891
39.500854 89.01445 -1.569501
39.607685 89.029373 -1.539571
39.554916 88.991531 -1.567512
39.284538 89.330917 -1.816415
39.477272 89.326401 -1.698662
39.508236 89.181625 -1.790833
39.335159 89.147629 -1.570397
39.330048 89.237839 -1.542918
39.327518 89.351639 -1.573302
39.290394 89.087936 -1.578279
39.471775 89.057327 -1.567973
39.375214 89.320786 -1.572292
39.234325 89.149155 -1.593661
39.458755 89.165543 -1.53973
39.257416 89.269089 -1.545364
39.430336 89.0905 -1.568199
39.3927 89.200455 -1.541499
39.480324 89.266983 -1.568974
39.426151 89.292587 -1.57085
39.352207 89.26442 -1.567162
39.385857 89.121414 -1.568861
39.284496 89.174118 -1.571927
39.355518 89.067123 -1.575384
39.244514 89.123215 -1.578698
39.465157 89.483597 -1.606836
39.458755 89.641373 -1.613835
39.418186 89.477341 -1.651979
39.494984 89.434341 -1.7561131
39.410664 89.55571 -1.5738029
39.283104 89.385025 -1.573879
39.491524 89.540146 -1.594501
39.252316 89.489731 -1.600135
39.388809 89.37001 -1.572673
39.232338 89.413956 -1.575309
39.387318 89.451157 -1.5932831
39.492481 89.62059 -1.583457
39.360191 89.530319 -1.603964
39.377865 89.602585 -1.593738
39.243435 89.604111 -1.58144
39.304817 89.536789 -1.578842
39.326313 89.474869 -1.595868
39.328663 89.413589 -1.573766
39.47205 89.562546 -1.566669
39.271126 89.65593 -1.597611
39.46537 89.382065 -1.59008
39.688869 89.240707 -1.732759
39.582428 89.211777 -1.566067
39.567844 89.081223 -1.538591
39.620941 89.17482 -1.566327
39.777645 89.354019 -1.588156
39.806328 89.224625 -1.572929
39.804447 89.16127 -1.583612
39.779312 89.267899 -1.6004699
39.762142 89.196945 -1.583697
39.755905 89.079697 -1.564508
39.707703 89.167435 -1.565452
39.58432 89.334366 -1.585284
39.596687 89.258255 -1.5666749
39.681896 89.344131 -1.601688
39.671459 89.264084 -1.584709
39.653812 89.213791 -1.5658979
39.656429 89.135605 -1.5670151
39.663074 89.083664 -1.572243
39.701439 89.103867 -1.5664099
39.524857 89.130997 -1.537954
39.525013 89.234451 -1.568382
39.728928 89.304764 -1.601277
39.529579 89.296585 -1.568457
39.574585 89.464005 -1.793762
39.57502 89.414474 -1.604073
39.782986 89.583817 -1.629946
39.819599 89.386063 -1.703151
39.603912 89.53801 -1.718855
39.768391 89.642593 -1.774747
39.821732 89.54631 -1.630693
39.821659 89.603531 -1.58996
39.559181 89.614883 -1.577673
39.765522 89.43605 -1.556289
39.661537 89.563065 -1.5572309
39.574863 89.548965 -1.5610549
39.630058 89.597702 -1.603686
39.800465 89.456406 -1.571311
39.600418 89.461349 -1.592568
39.638252 89.385941 -1.601702
39.788136 89.492783 -1.553784
39.526447 89.359238 -1.587474
39.674911 89.435562 -1.589372
39.729538 89.396866 -1.588394
39.713081 89.480545 -1.5567271
40.09267 89.21373 -1.811255
39.842453 89.106827 -1.642566
39.854118 89.272781 -1.608135
39.864124 89.179153 -1.57228
39.829163 89.084213 -1.563201
39.956814 89.177383 -1.594871
40.012272 89.336014 -1.550038
39.997425 89.202835 -1.5841939
39.832458 89.315842 -1.587171
39.942348 89.24025 -1.5851901
40.059101 89.170273 -1.582449
40.062523 89.239517 -1.5505559
40.061111 89.292435 -1.549896
39.950123 89.321671 -1.552168
39.89394 89.282394 -1.585439
39.928715 89.138321 -1.570962
40.121937 89.368942 -1.623036
39.96072 89.457962 -1.627731
39.843307 89.391159 -1.743974
40.035984 89.394485 -1.79046
40.041389 89.497696 -1.6966929
39.958355 89.581039 -1.753873
40.087486 89.38414 -1.6244971
39.900333 89.498489 -1.62869
39.905006 89.41716 -1.551384
39.919781 89.544235 -1.587515
40.046764 89.441422 -1.586652
40.049549 89.575577 -1.568434
40.002228 89.473923 -1.5872329
39.994331 89.605087 -1.570089
40.11129 89.550949 -1.565959
39.865879 89.570236 -1.5893919
39.897396 89.365311 -1.5526201
39.935894 89.632614 -1.572145
39.964142 89.511368 -1.5869401
39.849861 89.457016 -1.55223
40.104042 89.418747 -1.584323
39.966873 89.382004 -1.5498199
40.380299 89.231674 -1.615835
40.197788 89.338547 -1.78976
40.281506 89.280289 -1.618953
40.151882 89.221146 -1.546255
40.141354 89.301376 -1.5910569
40.257099 89.337875 -1.579924
40.267242 89.203964 -1.542991
40.201786 89.235367 -1.5449409
40.218128 89.187576 -1.5443881
40.311329 89.313858 -1.578011
40.422974 89.269058 -1.573732
40.359344 89.285141 -1.576969
40.133087 89.264847 -1.547243
40.217655 89.395462 -1.790782
40.233349 89.452499 -1.791357
40.418392 89.588608 -1.763176
40.329243 89.428848 -1.611941
40.399769 89.359116 -1.557989
40.364037 89.564224 -1.592275
40.305187 89.529587 -1.573957
40.297756 89.589462 -1.5951329
40.420479 89.48259 -1.569466
40.417313 89.530167 -1.590993
40.238041 89.619553 -1.5971971
40.188213 89.656723 -1.598071
40.170807 89.597061 -1.578261
40.171368 89.466782 -1.565506
40.172649 89.371994 -1.58322
40.221542 89.538254 -1.595826
40.391186 89.64595 -1.558926
40.241177 89.548782 -1.577047
40.252956 89.422958 -1.563207
40.353294 89.498764 -1.572996
40.350609 89.391556 -1.558852
40.28091 90.49675 -1.932053
39.634266 90.459091 -1.922595
39.502979 90.275375 -1.926621
39.744377 90.32991 -1.913623
39.345146 89.896683 -1.723593
39.427849 89.710007 -1.605428
39.259224 89.941238 -1.7212549
39.258762 89.865433 -1.726464
39.263416 89.776627 -1.7742651
39.266335 89.711105 -1.6688319
39.373627 89.816666 -1.694715
39.332344 89.703506 -1.610287
39.336422 89.756088 -1.656208
39.458958 89.960617 -1.720628
39.465733 89.875168 -1.707422
39.465923 89.800308 -1.649353
39.334942 89.949539 -1.78649
39.312016 89.889908 -1.784898
39.495667 89.745071 -1.619077
39.433292 89.76564 -1.827944
39.504955 89.912674 -1.835039
39.38567 89.728348 -1.640343
39.407841 89.848129 -1.690426
39.393673 89.893661 -1.745524
39.418972 89.947525 -1.802984
39.3279 89.829514 -1.704121
39.236893 89.878708 -1.828588
39.518917 89.690018 -1.59776
39.467014 89.724167 -1.598964
39.497723 90.133438 -1.689265
39.499554 90.033096 -1.783108
39.266685 90.2686 -1.717767
39.3088 90.221329 -1.717809
39.334015 90.163986 -1.719859
39.337482 90.092209 -1.720549
39.27523 90.19194 -1.718228
39.415638 90.068192 -1.720338
39.508007 89.979355 -1.7196029
39.284081 90.014236 -1.720204
39.286003 90.12944 -1.7219321
39.430637 90.012161 -1.719046
39.478706 90.034073 -1.717959
39.453606 90.185349 -1.689137
39.425549 90.124374 -1.906443
39.459179 90.115738 -1.7371171
39.233253 90.06105 -1.720785
39.348713 89.975784 -1.718102
39.382328 90.05101 -1.720011
39.373051 90.114975 -1.7203
39.34491 90.21788 -1.73847
39.395824 90.229538 -1.6904759
39.433804 90.180679 -1.904911
39.658745 89.917465 -1.691596
39.779163 89.932114 -1.675472
39.743187 89.875534 -1.644291
39.558064 89.942581 -1.743863
39.583443 89.898483 -1.68765
39.534882 89.846054 -1.667497
39.601082 89.855728 -1.659232
39.790031 89.962814 -1.677146
39.690544 89.747757 -1.8039711
39.725952 89.820847 -1.643972
39.716602 89.916153 -1.6850719
39.624207 89.798141 -1.620733
39.590633 89.66954 -1.594118
39.708279 89.680954 -1.584782
39.587872 89.776352 -1.6011831
39.646172 89.664749 -1.60128
39.680904 89.785019 -1.5845309
39.747116 89.717728 -1.6023901
39.76189 89.777237 -1.591314
39.790367 89.82872 -1.584155
39.815853 89.686295 -1.576649
39.617264 90.222183 -1.696558
39.769615 89.975906 -1.7783051
39.613853 90.046463 -1.6865669
39.77206 90.075546 -1.695094
39.748173 90.171188 -1.7292579
39.634468 89.980911 -1.689265
39.724396 90.212173 -1.887032
39.734089 90.132217 -1.694132
39.730896 90.022385 -1.7725689
39.815189 90.271957 -1.7284499
39.805336 90.130417 -1.727798
39.639111 90.012619 -1.851227
39.756111 90.247055 -1.778661
39.545219 89.9944 -1.740284
39.686203 90.073746 -1.774992
39.548874 90.08577 -1.688655
39.654942 90.165085 -1.697526
39.641003 90.257584 -1.731383
39.372547 90.447464 -1.678702
39.431118 90.46489 -1.8030879
39.480827 90.303543 -1.857533
39.477943 90.47261 -1.72474
39.480637 90.536758 -1.68664
39.381794 90.508438 -1.802312
39.259026 90.336227 -1.713714
39.243546 90.389206 -1.732716
39.367287 90.367691 -1.683969
39.383148 90.299606 -1.6870379
39.4361 90.378067 -1.796056
39.501171 90.344925 -1.792434
39.432968 90.296249 -1.866756
39.513763 90.477158 -1.6879719
39.51704 90.558578 -1.720663
39.234463 90.393753 -1.711668
39.318977 90.494186 -1.6796679
39.261864 90.484879 -1.8189369
39.514378 90.627853 -1.899518
39.604691 90.402725 -1.777266
39.608196 90.313248 -1.7300971
39.522778 90.404068 -1.691838
39.672573 90.318039 -1.779714
39.619724 90.565323 -1.765738
39.651554 90.407669 -1.854655
39.818108 90.353561 -1.709911
39.662861 90.495102 -1.768805
39.679199 90.543106 -1.719906
39.767841 90.400375 -1.710602
39.776466 90.481064 -1.704843
39.733505 90.532089 -1.7047729
39.734367 90.435226 -1.723157
39.711315 90.279831 -1.779889
39.552288 90.525406 -1.868661
39.559834 90.346603 -1.692807
39.576324 90.277451 -1.6959521
39.552731 90.606033 -1.778757
39.725403 90.602829 -1.700914
39.655342 90.599167 -1.717868
39.825066 90.591629 -1.70553
39.808712 90.649612 -1.702738
39.957211 89.728348 -1.817333
40.002914 89.745193 -1.605009
39.954815 89.77562 -1.816273
39.901047 89.872757 -1.645032
39.975109 89.903854 -1.621024
39.869621 89.897934 -1.623603
40.014774 89.93309 -1.6095639
39.844269 89.951248 -1.665156
40.127522 89.669174 -1.627239
40.074535 89.683212 -1.580844
40.123726 89.944046 -1.600293
40.040428 89.772507 -1.562202
40.060017 89.863571 -1.5741301
40.004154 89.699234 -1.584759
39.855198 89.813583 -1.571563
39.925632 89.726822 -1.5838521
39.930912 89.782272 -1.56862
40.002674 89.844589 -1.59956
39.840496 89.716415 -1.595534
39.833649 89.745438 -1.588662
39.98275 89.671555 -1.602814
40.050083 90.252213 -1.711899
40.064705 90.170364 -1.757715
40.041187 90.107986 -1.730239
39.937786 90.134109 -1.752744
39.912838 90.19017 -1.7267261
39.83197 90.071304 -1.729859
39.943966 89.970108 -1.662024
39.942955 90.134201 -1.831563
40.048912 90.033859 -1.6921721
39.94651 90.249374 -1.765931
39.990734 90.096512 -1.727482
39.874271 90.000443 -1.697023
39.874477 90.110611 -1.78227
39.853882 90.165115 -1.777542
39.877876 90.236313 -1.713081
39.999935 90.156326 -1.709396
40.117126 90.019608 -1.6613359
40.092949 90.141525 -1.716643
40.115547 90.25032 -1.710206
40.059338 89.972794 -1.6496609
39.996395 90.010452 -1.679777
39.898151 90.062759 -1.756469
39.945705 90.200241 -1.71048
39.938725 90.02092 -1.684968
39.949081 90.076645 -1.747761
40.28698 89.868881 -1.714938
40.371429 89.917099 -1.606271
40.203735 89.829117 -1.640798
40.163101 89.949905 -1.604862
40.135288 89.876114 -1.631061
40.233631 89.670273 -1.664454
40.176773 89.780411 -1.552997
40.321846 89.798386 -1.5795701
40.326397 89.892685 -1.588966
40.151268 89.89827 -1.601899
40.132809 89.829025 -1.571682
40.221088 89.882523 -1.597836
40.335598 89.73494 -1.554312
40.376461 89.822403 -1.556837
40.423584 89.705307 -1.541973
40.273598 89.947525 -1.5974
40.361465 89.742783 -1.543571
40.254658 89.708786 -1.56361
40.279243 89.767746 -1.5472471
40.253025 89.824295 -1.564438
40.392014 89.759903 -1.548759
40.326237 89.679367 -1.560912
40.412151 89.889511 -1.582702
40.313168 90.249069 -1.737319
40.332119 90.033951 -1.605137
40.21986 90.248093 -1.777313
40.221378 90.18364 -1.800441
40.215015 90.123734 -1.77338
40.32188 90.114578 -1.810884
40.187683 90.145432 -1.707536
40.404484 90.047775 -1.647728
40.226784 90.054794 -1.647171
40.252327 90.032913 -1.667384
40.189701 89.99852 -1.6501189
40.346794 89.983688 -1.765569
40.359913 90.056046 -1.634513
40.343952 90.113022 -1.6725481
40.360947 90.160812 -1.70908
40.411636 90.135239 -1.661551
40.144966 90.074631 -1.762055
40.169884 90.261246 -1.794434
40.433449 90.226273 -1.825448
40.272549 90.126694 -1.6845779
40.250034 90.225815 -1.769811
40.323662 89.982712 -1.587292
