# .PCD v0.7 - Point Cloud Data file format
VERSION 0.7
FIELDS x y z
SIZE 4 4 4
TYPE F F F
COUNT 1 1 1
WIDTH 546
HEIGHT 1
VIEWPOINT 0 0 0 1 0 0 0
POINTS 546
DATA ascii
0 0 -1.640294
0.067244999 0.004807 -1.638822
0.031622 0.062714003 -1.774905
0.017782001 0.281326 -1.749927
-0.01315 0.133469 -1.65821
0.0079650003 0.19630399 -1.652329
0.081022002 0.29730201 -1.644318
0.066362001 0.172684 -1.6532381
0.016581999 0.33048999 -1.6425509
0.802616 0.199173 -1.933329
0.61950803 0.26357999 -2.011728
1.0083309 -0.00051899999 -2.0232961
0.142748 -0.049210001 -1.6876301
0.33369401 0.014694 -1.634025
0.319837 0.080367997 -1.735262
0.193067 -0.064102001 -1.687296
0.13313501 0.002014 -1.638063
0.26731601 0.012848 -1.635131
0.199007 -0.00056500034 -1.637307
0.21841399 0.070923001 -1.72109
0.21619201 0.27505499 -1.6441081
0.127863 0.164886 -1.652633
0.11775 0.25585899 -1.710494
0.13109601 0.32527199 -1.7277319
0.37906399 0.099930003 -1.7021559
0.256643 0.18130501 -1.648399
0.286111 0.28205901 -1.642473
0.37812999 0.159439 -1.647963
0.356933 0.297241 -1.640159
0.30933499 0.229187 -1.660663
0.315256 0.158508 -1.649316
0.354202 0.38755801 -1.70389
0.22982199 0.351318 -1.756379
0.148849 0.28804001 -1.644042
0.172084 0.223831 -1.663352
0.186453 0.141663 -1.653546
0.43549499 0.053543001 -1.705198
0.397089 -0.00293 -1.634699
0.59930998 -0.019317999 -1.6603709
0.60492301 0.051498 -1.657433
0.63984299 -0.158096 -1.645241
0.58509803 -0.14691199 -1.659125
0.65016299 -0.096008003 -1.6666
0.58070701 -0.105789 -1.6413569
0.66846597 -0.035613999 -1.689288
0.64639598 0.060180999 -1.7159899
0.462293 -0.0084990002 -1.634308
0.54571098 0.037887998 -1.656036
0.51854903 -0.076964997 -1.6396101
0.38929 0.34937999 -1.706898
0.51967198 0.332367 -1.6506751
0.48289999 0.197723 -1.646757
0.46674299 0.29197699 -1.710288
0.41999599 0.249359 -1.643288
0.57750899 0.221909 -1.659343
0.544792 0.134415 -1.651245
0.51068997 0.249313 -1.711658
0.49115101 0.087387003 -1.65246
0.54233903 0.364456 -1.690838
0.43842301 0.172272 -1.6635489
0.43351901 0.117447 -1.650779
0.62844098 0.35133401 -1.8733211
0.59694099 0.206772 -1.669525
0.620691 0.111114 -1.676751
0.672809 0.24574301 -1.830847
0.898296 -0.026992999 -1.811607
0.83257502 0.016251 -1.825245
0.75626099 0.062484998 -1.870396
0.77408803 -0.0086209998 -1.830598
0.83407003 -0.062637001 -1.8173029
0.77520299 -0.070800997 -1.819782
0.91359299 -0.129089 -1.821094
0.96912903 0.044022001 -1.801778
0.889799 0.037521001 -1.820415
0.71971703 -0.017975001 -1.833869
0.97670299 -0.084991001 -1.813006
0.70284998 0.13763399 -1.773034
0.93100899 0.184586 -1.826272
0.92488801 0.328796 -1.7521321
0.99422801 0.35745201 -1.7485549
0.96656197 0.24380501 -1.846364
0.72833598 0.25912499 -1.826993
0.70898002 0.324417 -1.866866
0.916538 0.28106701 -1.846609
0.77049398 0.14172401 -1.771706
0.85083503 0.277374 -1.769085
0.77790999 0.21800201 -1.775723
0.83852398 0.150024 -1.770004
0.76279598 0.315292 -1.861174
0.82624203 0.34835801 -1.8036211
0.87812197 0.199829 -1.869296
1.113193 -0.165527 -1.751525
1.109298 -0.062194999 -1.790319
1.036852 -0.103516 -1.795063
1.033411 0.084105998 -1.795629
1.059953 0.052841 -1.824851
1.07872 0.0028689997 -1.844077
1.0134749 0.29071 -1.765558
1.0059429 0.201492 -1.819917
1.076597 0.21354701 -1.771937
1.092941 0.101028 -1.792239
1.0625401 0.378418 -1.745731
0.02713 0.97732502 -1.940462
0.022020001 0.47586101 -1.76807
0.007005 0.53123498 -1.766848
0.006639 0.66085798 -1.6294169
0.063905001 0.623734 -1.6439019
0.062047999 0.56080598 -1.6370699
0.056979999 0.406158 -1.783926
0.02263 0.744232 -1.705942
-0.0079669999 0.83035302 -1.658742
-0.038832001 0.80293298 -1.702397
0.054613002 0.797104 -1.660587
0.043786999 0.90133703 -1.627182
-0.028523 0.88230902 -1.629648
-0.040525999 0.95309401 -1.729248
-0.063823998 0.73220801 -1.766651
0.033464 1.060516 -1.653429
-0.023732999 1.256027 -1.634003
0.022125 1.1105649 -1.627722
-0.042202 1.139374 -1.62613
-0.037308 1.023178 -1.759668
0.037211999 1.248962 -1.633569
0.032047 1.58876 -1.697497
0.026721999 1.5350339 -1.630725
0.032715999 1.434586 -1.630553
0.037695002 1.345901 -1.710815
-0.021412 1.368942 -1.6650929
0.045008998 1.375061 -1.663375
0.058735002 1.483078 -1.637278
-0.038802002 1.551651 -1.630162
-0.035213999 1.442963 -1.630757
-0.081055 1.843567 -1.655924
0.012039 1.656876 -1.642939
0.01292 1.749985 -1.835934
0.0047030002 1.859589 -1.665646
0.041271001 1.863693 -1.6595941
-0.087164 1.666244 -1.694084
-0.046641 1.642776 -1.694873
-0.038763002 1.726151 -1.637488
0.069775999 1.6270289 -1.644622
-0.018513 1.803406 -1.6585259
-0.01833 1.915787 -1.655791
0.039740998 1.68042 -1.64818
0.045248002 1.7713619 -1.660427
-0.05407 2.1381681 -1.651897
-0.105538 2.191895 -1.647818
-0.050639 2.082932 -1.63515
-0.074207999 2.048492 -1.6767859
-0.079226002 1.956238 -1.6530581
0.062886998 2.127274 -1.688612
0.058717001 2.2020569 -1.747324
-0.010758 2.1620941 -1.64329
0.000459 2.100281 -1.654421
0.012142 2.0315859 -1.638555
-0.003397 1.9782259 -1.68624
0.073089004 1.960632 -1.643664
0.049327999 2.075485 -1.649775
0.0098470002 2.2615659 -1.677658
0.017229 2.371048 -1.75019
-0.098958999 2.342911 -1.679824
-0.048363 2.2397161 -1.67988
-0.058306001 2.3040471 -1.67467
-0.101319 2.2537839 -1.630518
-0.044149999 2.380173 -1.668112
0.073337004 2.3972631 -1.768832
0.94093502 1.500504 -1.921201
0.88873601 0.58456397 -1.929976
0.71912402 1.107895 -1.920665
0.31061101 1.58696 -1.9308161
0.53816998 1.568604 -1.976149
0.636989 1.187729 -1.942611
0.55359399 0.793396 -1.937706
0.53548598 0.84866297 -1.944145
0.489925 0.79818702 -1.951172
0.68449599 0.55946302 -1.951136
0.65720898 0.77297997 -1.934744
0.411874 1.346512 -1.936785
0.30945599 0.68594402 -1.666207
0.32975 0.490585 -1.639569
0.291576 0.41717499 -1.703325
0.132578 0.57154799 -1.6352381
0.13823099 0.45887801 -1.787967
0.130888 0.40145901 -1.790132
0.266473 0.53845203 -1.636318
0.26574901 0.65536499 -1.7383699
0.150415 0.49851999 -1.700438
0.199985 0.55883801 -1.635439
0.201465 0.645172 -1.707112
0.14514899 0.63101202 -1.637486
0.234731 0.46189901 -1.700657
0.34888801 0.52301002 -1.6437089
0.36948001 0.626068 -1.670517
0.083360001 0.99253798 -1.7189519
0.166704 0.94924903 -1.7180049
0.182827 0.89660603 -1.625923
0.184663 0.76281703 -1.661459
0.22200701 0.95483398 -1.660037
0.24824899 0.734146 -1.6629519
0.245819 0.83718902 -1.630129
0.28116599 0.88707 -1.665162
0.274528 0.942123 -1.638873
0.373808 0.99632299 -1.6727459
0.360809 0.952057 -1.727851
0.34028599 0.81553602 -1.670638
0.095371 0.70707703 -1.705932
0.120697 0.78773499 -1.660318
0.110693 0.87708998 -1.628387
0.37246901 0.70288098 -1.736346
0.33268899 0.74791002 -1.733062
0.33440199 0.86686701 -1.644565
0.32238701 0.99848902 -1.692608
0.65951699 0.50547802 -1.809961
0.394254 0.450836 -1.6421421
0.57969397 0.62770098 -1.787851
0.42941099 0.562424 -1.67518
0.53584999 0.42157 -1.703241
0.50452799 0.52333099 -1.671883
0.51854098 0.67135602 -1.784696
0.68993503 0.39271501 -1.858783
0.61116898 0.69201702 -1.778903
0.59140599 0.51265001 -1.810093
0.63004798 0.42082199 -1.844299
0.569704 0.474289 -1.816455
0.459005 0.41130099 -1.644716
0.451341 0.67730701 -1.659362
0.57104999 0.871445 -1.819279
0.466499 0.97193903 -1.808138
0.45668 0.89833099 -1.859591
0.45915201 0.83784503 -1.828305
0.58684701 0.93281603 -1.792115
0.53531599 0.96601897 -1.840953
0.51460201 0.90391499 -1.795555
0.66034102 0.97785902 -1.787204
0.67804098 0.89065599 -1.8123651
0.64161497 0.83315998 -1.872992
0.424898 0.75254798 -1.71316
0.678936 0.71156299 -1.77599
0.55150801 0.73585498 -1.775606
0.62352902 0.87712097 -1.816346
0.40524399 0.89901698 -1.706493
0.396988 0.81161499 -1.648549
0.096454002 1.02771 -1.6553971
0.089698002 1.105698 -1.627264
0.091228001 1.202881 -1.636928
0.099384002 1.298645 -1.669297
0.37341699 1.2700959 -1.785957
0.362039 1.049957 -1.693139
0.213699 1.005676 -1.634207
0.217842 1.240555 -1.64449
0.22045501 1.291 -1.667918
0.32492599 1.214096 -1.7053061
0.333433 1.104797 -1.682892
0.249099 1.030334 -1.650425
0.27629399 1.137955 -1.652405
0.277347 1.203751 -1.674875
0.270973 1.3008879 -1.671321
0.155559 1.3037111 -1.639958
0.147569 1.1687469 -1.639151
0.154781 1.081284 -1.628515
0.163294 1.022766 -1.654911
0.23987199 1.39624 -1.671554
0.163133 1.370514 -1.661667
0.152235 1.455017 -1.635994
0.140306 1.5518039 -1.794208
0.20937701 1.515381 -1.708513
0.22457901 1.41272 -1.661728
0.206936 1.34407 -1.644839
0.125145 1.581665 -1.647813
0.20548201 1.570084 -1.683498
0.34670001 1.524078 -1.799473
0.31671101 1.326202 -1.7815011
0.30092201 1.437912 -1.7809
0.36776501 1.445541 -1.779228
0.387153 1.381393 -1.806036
0.092329003 1.518646 -1.631289
0.098347999 1.406662 -1.632041
0.43354601 1.010422 -1.804588
0.61172998 1.056671 -1.798493
0.49210101 1.018402 -1.802281
0.62380898 1.109055 -1.7889659
0.62642998 1.262848 -1.793761
0.65392798 1.132782 -1.835826
0.42762199 1.123978 -1.814075
0.39541799 1.204453 -1.785085
0.56414801 1.304733 -1.813436
0.55873799 1.207184 -1.801592
0.49804699 1.114349 -1.8526011
0.57162797 1.133698 -1.84295
0.56012702 1.073334 -1.794477
0.54032302 1.024078 -1.8023731
0.52752799 1.22789 -1.778733
0.439035 1.0962369 -1.880071
0.45363799 1.160767 -1.78634
0.46511799 1.246841 -1.7796921
0.46285999 1.339478 -1.864558
0.46399301 1.532745 -1.804028
0.51972401 1.472916 -1.792618
0.53629303 1.383957 -1.834911
0.53824198 1.317108 -1.771504
0.41978401 1.5760961 -1.793645
0.42911699 1.438156 -1.800235
0.586528 1.399597 -1.828846
0.54197299 1.5373991 -1.846719
0.590976 1.548386 -1.7825249
0.61659199 1.431061 -1.7589231
0.60649502 1.342743 -1.766489
0.69157398 1.525604 -1.748343
0.67500299 1.406479 -1.821381
0.68598002 1.469788 -1.753089
0.65302402 1.57724 -1.7778569
0.88734603 0.48963901 -1.820879
0.99605697 0.54037499 -1.856867
0.87862003 0.68183899 -1.770542
0.85948902 0.39749101 -1.843367
0.78223199 0.68333399 -1.848736
0.73812503 0.46029699 -1.8328969
0.73791897 0.60159302 -1.80011
0.72334599 0.68557698 -1.8548599
0.79842699 0.432877 -1.85039
0.793935 0.48594701 -1.8263021
0.79828 0.55699199 -1.782685
0.97445601 0.47404501 -1.7899621
0.94490403 0.58967602 -1.857682
0.94683999 0.67202801 -1.7707959
0.75220102 0.39160201 -1.853536
0.93062699 0.40029901 -1.7563
0.93181998 0.51460302 -1.8237
0.8908 0.77491802 -1.7822829
0.89367598 0.925964 -1.825073
0.83520103 0.93331897 -1.752313
0.90541399 0.98535198 -1.746302
0.71352702 0.826401 -1.796948
0.72993797 0.77833599 -1.771206
0.81715 0.71388203 -1.788766
0.96470797 0.84417701 -1.775054
0.85504299 0.98615998 -1.7930911
0.94294101 0.92727703 -1.753911
0.97046602 0.99409503 -1.744562
0.76126999 0.853912 -1.761044
0.87287903 0.88264501 -1.759163
0.83996898 0.77461201 -1.817794
0.741853 0.93881202 -1.8036619
0.74252099 0.99340802 -1.822135
1.000675 0.44441199 -1.751206
1.019594 0.59223902 -1.838506
1.0160559 0.67437702 -1.7699569
1.055311 0.65947002 -1.783458
1.044855 0.50358599 -1.786324
1.066099 0.44920301 -1.749959
1.041219 0.802719 -1.823424
1.00712 0.91670197 -1.754014
1.029623 0.81449902 -1.7771699
1.0227619 0.74650598 -1.810407
1.0759391 0.95393401 -1.74953
1.090683 0.74845898 -1.762557
0.743442 1.134232 -1.771989
0.87369502 1.085556 -1.82453
0.88698202 1.2138211 -1.763278
0.75712198 1.216385 -1.773826
0.95595098 1.224228 -1.761683
0.693367 1.176224 -1.779792
0.83801001 1.051971 -1.770604
0.97972101 1.085281 -1.766239
0.82291198 1.134415 -1.80683
0.81655699 1.18779 -1.766345
0.90461701 1.300751 -1.772437
0.91049403 1.1248471 -1.803598
0.82055801 1.2568049 -1.767862
0.908189 1.058563 -1.7693239
0.81879002 1.5457309 -1.744372
0.81726998 1.491318 -1.749104
0.81559002 1.368942 -1.777563
0.75448799 1.529633 -1.746956
0.93117499 1.388718 -1.77284
0.99554998 1.428116 -1.7969739
0.71412802 1.602448 -1.773643
0.88202101 1.5541691 -1.742589
0.87007302 1.45755 -1.799273
0.75102001 1.474503 -1.751676
0.69664699 1.334412 -1.784114
0.75691998 1.355469 -1.780383
0.872738 1.374817 -1.775656
0.98680502 1.387161 -1.7718461
0.94380301 1.550964 -1.742005
1.036272 1.0110019 -1.742047
0.99975902 1.185028 -1.8321
1.026626 1.258698 -1.757882
1.045648 1.276184 -1.760972
1.050779 1.108276 -1.763517
1.009102 1.57962 -1.738228
1.014021 1.531296 -1.742556
1.045692 1.405426 -1.768579
0.433828 2.2562871 -1.961768
0.78079599 1.664719 -1.919045
0.270174 1.890457 -1.914097
0.34962401 1.906708 -1.931757
0.12715299 2.5215149 -1.914272
0.52102202 2.3938899 -1.979122
0.294227 1.639282 -1.799734
0.312433 1.734573 -1.818748
0.105432 1.707886 -1.665132
0.199325 1.875198 -1.776894
0.21920399 1.826797 -1.8335921
0.25225201 1.799316 -1.783421
0.27828601 1.669006 -1.803753
0.100202 1.803879 -1.664112
0.13073701 1.854202 -1.65184
0.32345399 1.853729 -1.776785
0.109642 1.8950959 -1.676172
0.162828 1.6168669 -1.6722879
0.152141 1.76358 -1.6877739
0.182216 1.680527 -1.6658109
0.356668 1.663483 -1.795487
0.36653101 1.747604 -1.8146811
0.36843601 1.794769 -1.832323
0.35449401 2.2238009 -1.7781841
0.352911 2.1212161 -1.80393
0.14992499 2.188385 -1.796694
0.15738501 2.1226649 -1.835098
0.163091 2.064301 -1.778011
0.242937 2.0871119 -1.812989
0.105226 2.0300291 -1.7169141
0.105974 1.949417 -1.659657
0.25595301 1.968201 -1.769851
0.31315601 1.926971 -1.773759
0.30864301 1.975525 -1.834673
0.29721001 2.025955 -1.820696
0.30631199 2.181335 -1.764249
0.191919 1.97644 -1.769961
0.236532 2.134506 -1.769938
0.33510199 2.0826721 -1.75771
0.41667101 1.676224 -1.7925889
0.42267799 1.768463 -1.809553
0.58436698 1.631073 -1.780421
0.498689 1.896713 -1.807693
0.55511397 1.828003 -1.7643189
0.54696202 1.904373 -1.803913
0.389137 1.631683 -1.8574049
0.38798499 1.8449399 -1.821228
0.49747199 1.675903 -1.783255
0.532673 1.730408 -1.749699
0.637537 1.737747 -1.90438
0.62848097 1.881897 -1.758515
0.60461402 1.794235 -1.74264
0.45644701 1.635223 -1.75984
0.47892201 1.7465971 -1.772673
0.48728001 1.820068 -1.80018
0.44756901 1.8818361 -1.812668
0.67173398 1.818787 -1.739434
0.65880001 1.704193 -1.772759
0.47139099 1.972702 -1.820323
0.59031802 2.141571 -1.747076
0.63878399 1.925705 -1.833954
0.61254102 2.0385129 -1.762233
0.38766399 2.012711 -1.763732
0.47852299 2.205826 -1.743911
0.60606903 2.0899351 -1.748669
0.67905998 2.0015719 -1.764827
0.68062401 2.043823 -1.798165
0.66904402 2.0943451 -1.747226
0.653175 2.1534729 -1.744778
0.66914499 2.2028961 -1.838406
0.45881799 2.079056 -1.75574
0.47228399 2.022598 -1.757538
0.52575499 2.118088 -1.750595
0.54353499 2.0897059 -1.749714
0.54056901 2.0041809 -1.766166
0.41739801 2.203949 -1.826471
0.40491301 2.126328 -1.752556
0.40318799 2.0630341 -1.809756
0.52355403 1.9569401 -1.818205
0.40106401 1.959717 -1.764966
0.145633 2.4524989 -1.7624789
0.38388801 2.291595 -1.752207
0.133619 2.382843 -1.79682
0.27318701 2.4724879 -1.831154
0.205276 2.39238 -1.806507
0.214149 2.348572 -1.818591
0.223776 2.2446749 -1.790327
0.082147002 2.3070829 -1.831874
0.303844 2.2410581 -1.833567
0.29957199 2.325027 -1.781706
0.31141099 2.3961639 -1.819913
0.31940201 2.442261 -1.795547
0.26027599 2.4095759 -1.802086
0.159549 2.3265989 -1.824728
0.51639903 2.347137 -1.744809
0.54620898 2.2381589 -1.739924
0.408153 2.3753359 -1.804095
0.57810801 2.3397059 -1.744686
0.65674698 2.316879 -1.761704
0.67539603 2.25209 -1.7369961
0.469877 2.37117 -1.812266
0.44975999 2.3152919 -1.7489049
0.60975999 2.2351069 -1.73943
0.59741002 2.302521 -1.764462
0.58999997 2.374069 -1.901292
0.69187498 2.272171 -1.8120281
0.98301101 1.910706 -1.7558
0.90583801 1.917328 -1.75205
0.93215698 1.8559721 -1.7327811
0.93544698 1.792984 -1.7615401
0.91788799 1.7017519 -1.807441
0.925502 1.615128 -1.743088
0.82890701 1.61438 -1.7697411
0.79813403 1.756027 -1.7664
0.802122 1.8369139 -1.736106
0.710796 1.661346 -1.824525
0.72994399 1.74585 -1.768086
0.86623001 1.766434 -1.764716
0.78331202 1.883881 -1.760339
0.86875898 1.862167 -1.732903
0.69717598 1.880447 -1.757807
0.99448198 1.686722 -1.804666
0.990942 1.736038 -1.9069901
0.99740797 1.869827 -1.730736
0.73739201 1.831696 -1.737385
0.94127399 2.0128331 -1.789646
0.77617401 2.1581881 -1.742214
0.74966401 2.0205081 -1.762346
0.769943 1.934875 -1.752008
0.83897901 1.941879 -1.750574
0.86762398 2.0067439 -1.802356
0.73059398 2.0871119 -1.74698
0.71249002 2.137955 -1.7453229
0.97735202 1.964554 -1.746984
0.83691603 2.154953 -1.741544
0.79438001 2.099869 -1.744742
0.92078 2.1181641 -1.741066
0.81160903 2.02948 -1.7936029
0.96274 2.1886599 -1.736146
0.79455501 1.9690861 -1.816543
0.87910801 2.1706541 -1.745054
0.88992798 2.051163 -1.758114
0.98384798 2.127655 -1.73923
0.85591102 2.0930791 -1.744498
1.002149 1.787994 -1.761351
1.0011441 1.637772 -1.763451
1.047214 2.1413269 -1.736997
1.022911 2.1821139 -1.735884
0.71469802 2.3236239 -1.759837
0.98022801 2.2476201 -1.796967
0.80467999 2.270905 -1.733683
0.770118 2.3148651 -1.7597491
0.74048603 2.2653351 -1.734951
