# .PCD v0.7 - Point Cloud Data file format
VERSION 0.7
FIELDS x y z
SIZE 4 4 4
TYPE F F F
COUNT 1 1 1
WIDTH 1602
HEIGHT 1
VIEWPOINT 0 0 0 1 0 0 0
POINTS 1602
DATA ascii
16.736031 82.613968 -1.749589
16.597652 82.565872 -1.7742079
16.629772 82.503677 -1.6990809
16.607006 82.357193 -1.68505
16.884865 82.393631 -1.67502
16.872643 82.612747 -1.740124
16.875931 82.564224 -1.7137001
16.88554 82.494125 -1.677899
16.859955 82.444534 -1.673331
16.855247 82.698685 -1.78631
16.815495 82.676895 -1.7812999
16.791046 82.740341 -1.8208981
16.822414 82.793747 -1.812479
16.827862 82.888321 -1.802847
16.649975 82.750626 -1.854472
16.863392 82.763931 -1.835753
16.843651 82.822891 -1.8057131
16.846764 82.908585 -1.855641
16.594536 82.678421 -1.825826
16.621449 82.792679 -1.853763
16.626053 82.856827 -1.847942
16.611122 82.90773 -1.845189
16.706329 82.679153 -1.806283
16.756794 82.83345 -1.8672349
16.692596 82.811844 -1.861284
16.744995 82.710495 -1.812651
16.709415 82.869705 -1.870165
17.065109 82.55452 -1.6968549
17.080456 82.49025 -1.701682
16.984097 82.52388 -1.662481
16.946678 82.440781 -1.6406209
16.985413 82.344681 -1.635516
17.029476 82.531296 -1.662928
16.927197 82.568649 -1.707261
16.933575 82.446579 -1.6734689
16.906284 82.352768 -1.641317
17.035805 82.343155 -1.659035
17.111549 82.386856 -1.632419
17.135094 82.555557 -1.6484981
17.091724 82.62532 -1.709228
17.156933 82.373642 -1.6615061
17.040432 82.425735 -1.711385
17.063034 82.379959 -1.661906
17.156876 82.501663 -1.650556
17.184177 82.555222 -1.6508271
17.158001 82.851822 -1.81493
17.17363 82.756546 -1.75425
17.09436 82.677597 -1.7037179
17.1217 82.877518 -1.889969
17.200623 82.695877 -1.699584
17.19873 82.868759 -1.823011
16.913616 82.842545 -1.855041
16.900654 82.782059 -1.8037831
17.005367 82.841049 -1.871622
17.02874 82.749893 -1.793491
16.908604 82.727982 -1.834474
16.939007 82.679489 -1.795471
16.995644 82.694992 -1.786393
16.974766 82.751785 -1.7998509
17.077839 82.898636 -1.8865989
16.999733 82.644241 -1.715109
17.168457 82.668167 -1.6969039
16.920513 82.635696 -1.729574
17.048 82.648422 -1.708818
17.084461 82.740433 -1.764609
17.080219 82.817734 -1.799698
16.798416 83.16777 -1.787816
16.653858 82.952744 -1.861979
16.687153 83.054672 -1.853006
16.868244 83.202225 -1.880778
16.848396 83.095566 -1.883469
16.832935 82.965836 -1.7975889
16.676601 83.193741 -1.8765759
16.596397 82.958633 -1.842437
16.619381 83.183334 -1.847195
16.817711 83.031174 -1.794728
16.751347 82.978561 -1.87963
16.778111 83.050827 -1.799105
16.757423 83.108932 -1.797031
16.750694 83.175125 -1.793274
16.780544 83.231094 -1.78536
16.614552 83.230423 -1.842762
16.691135 82.990799 -1.857633
16.813091 83.102493 -1.790673
16.688789 83.118301 -1.872333
16.72361 83.229263 -1.792045
16.704559 83.357559 -1.785382
16.724289 83.299393 -1.787449
16.735371 83.425003 -1.777204
16.725487 83.492172 -1.773959
16.759441 83.365555 -1.77886
16.657127 83.53804 -1.7779239
16.600616 83.52037 -1.824684
16.627068 83.428299 -1.830205
16.776787 83.302261 -1.781312
16.778439 83.461014 -1.793329
16.669235 83.475937 -1.780829
16.652187 83.389816 -1.831018
16.647102 83.263962 -1.908476
16.774143 83.536728 -1.7895629
16.838783 83.24263 -1.878853
16.846485 83.338486 -1.855888
16.790062 83.388992 -1.7963541
16.809254 83.326126 -1.870685
16.841793 83.467758 -1.905755
17.145298 82.937668 -1.883566
16.909527 83.007675 -1.890254
16.91901 83.11412 -1.886982
16.897968 83.161972 -1.882702
17.118309 82.984421 -1.891878
17.100368 83.192764 -1.862498
16.940067 82.974106 -1.891934
17.083969 82.948898 -1.889922
17.047951 83.00444 -1.89309
16.993908 83.1689 -1.870703
17.001961 83.009445 -1.891589
17.034752 82.940659 -1.884949
17.04768 83.136429 -1.869925
16.941944 83.241287 -1.862487
16.94627 83.071518 -1.8896919
17.083626 83.225662 -1.8604161
17.199257 83.234665 -1.86265
17.19318 82.989151 -1.8113559
17.160633 83.039688 -1.875248
17.182579 83.132919 -1.803349
17.1674 83.198715 -1.800543
17.140774 83.405869 -1.79015
17.152477 83.264542 -1.797739
17.187489 83.492661 -1.790658
17.054775 83.381607 -1.854113
17.057781 83.437485 -1.908291
17.059628 83.532883 -1.860896
17.06337 83.278793 -1.856222
17.200985 83.428818 -1.7935489
16.940929 83.308914 -1.892328
16.995979 83.363297 -1.854266
16.951397 83.442612 -1.850135
16.92942 83.493729 -1.8466589
17.126785 83.544998 -1.782968
17.130161 83.473495 -1.786955
17.123974 83.322464 -1.796526
16.901409 83.453049 -1.909042
16.911404 83.262772 -1.862424
16.989395 83.443436 -1.851635
16.842827 84.119949 -1.940684
16.485767 83.652939 -1.968908
16.819263 84.049149 -1.939263
16.79076 83.902359 -1.9446419
16.695633 84.298264 -1.932861
16.753185 84.218521 -1.915012
16.960583 83.873825 -1.9302011
16.964455 83.593918 -2.0099211
17.101261 84.203354 -1.946476
16.910076 83.944839 -1.938948
16.905529 83.894821 -1.940608
17.094872 84.258286 -1.942685
16.707207 84.242905 -1.93753
16.586002 83.565353 -1.8222049
16.540489 83.644913 -1.8200279
16.502304 83.728897 -1.816743
16.57621 83.767441 -1.770519
16.558273 83.825821 -1.768461
16.507557 83.833145 -1.849015
16.552799 84.116806 -1.751525
16.556568 84.047958 -1.7551481
16.540676 83.95192 -1.762253
16.558132 83.893539 -1.764308
16.492306 84.061447 -1.75982
16.51992 84.008469 -1.760617
16.589706 83.922836 -1.7596281
16.488346 84.228836 -1.829133
16.520836 84.171341 -1.7510689
16.514019 84.238388 -1.747846
16.585571 84.182724 -1.815411
16.586147 84.286087 -1.764945
16.574551 84.356155 -1.762314
16.498611 84.338211 -1.777372
16.892399 83.578201 -1.8411061
16.634373 83.80336 -1.762923
16.862972 83.589401 -1.842308
16.696304 83.806107 -1.781197
16.720581 83.664017 -1.78686
16.872356 83.686966 -1.834479
16.848633 83.736038 -1.831715
16.675014 83.60939 -1.771051
16.672905 83.680313 -1.7670161
16.657032 83.743698 -1.764572
16.71587 83.559311 -1.770716
16.763107 83.608688 -1.7865421
16.815224 83.632492 -1.841471
16.804344 83.814163 -1.828293
16.616238 83.652664 -1.77422
16.627872 83.59053 -1.777122
16.601353 83.712875 -1.771739
16.780407 83.840958 -1.828344
16.745453 83.754257 -1.780136
16.787991 83.677353 -1.837061
16.62616 84.077591 -1.772482
16.592491 83.995407 -1.755208
16.819115 83.949539 -1.834661
16.864147 83.889572 -1.836866
16.742489 83.901596 -1.826316
16.657978 84.038345 -1.821926
16.748814 84.046829 -1.830961
16.67672 83.949875 -1.775171
16.639557 83.853897 -1.827446
16.691319 83.996323 -1.822208
16.708412 84.155472 -1.826318
16.689919 83.879807 -1.777812
16.723278 83.953354 -1.822843
16.613743 84.14769 -1.769845
16.618984 83.866776 -1.760482
17.184658 83.562363 -1.786538
16.920376 83.679184 -1.855242
17.13958 83.630264 -1.840716
17.192558 83.637741 -1.781191
17.120224 83.614456 -1.779381
17.15551 83.687973 -1.781175
17.15004 83.755569 -1.777472
16.898331 83.731827 -1.84902
17.009819 83.678848 -1.847572
17.003464 83.590958 -1.858642
16.900249 83.841568 -1.838714
17.077713 83.809311 -1.771407
17.142799 83.820541 -1.859758
17.066605 83.588821 -1.853452
16.983727 83.715836 -1.8456579
16.961414 83.643784 -1.855343
17.120373 83.809799 -1.776637
17.096474 83.674332 -1.777779
17.09396 83.745651 -1.7737989
17.175568 84.158218 -1.783946
17.111912 83.875443 -1.773348
17.110741 83.944809 -1.769242
17.138016 84.001633 -1.811538
17.184513 84.088058 -1.78701
17.146599 84.018173 -1.878209
16.989571 84.122421 -1.760656
17.106506 84.049637 -1.83381
17.09631 84.108292 -1.806873
17.170235 83.941879 -1.813216
16.913029 83.997147 -1.785953
17.06171 83.873032 -1.769017
17.056526 83.942276 -1.7654409
17.050205 84.004562 -1.860615
17.059963 84.057358 -1.7667609
17.022892 83.906662 -1.8268369
17.016342 83.993088 -1.765823
17.086727 84.155075 -1.803887
16.906826 84.071671 -1.782607
16.966473 84.126389 -1.85707
16.952866 84.061172 -1.820155
16.984241 83.981705 -1.824097
17.004597 84.05867 -1.763041
16.89735 84.144394 -1.7796299
16.658482 84.23027 -1.823329
16.594437 84.214279 -1.767948
16.870281 84.208267 -1.778489
16.879272 84.289658 -1.773682
16.602329 84.318863 -1.819561
16.856312 84.355331 -1.7721781
16.742062 84.374283 -1.836754
16.82402 84.326157 -1.81063
16.819695 84.217941 -1.8439879
16.751755 84.322647 -1.838185
16.964149 84.180771 -1.7594579
17.151215 84.346695 -1.802159
17.013657 84.241196 -1.759778
17.003426 84.304916 -1.756909
17.147827 84.293106 -1.778972
17.163345 84.226547 -1.781268
16.99699 84.363205 -1.796258
16.963818 84.251724 -1.755496
17.031208 84.181137 -1.761832
16.927773 84.242874 -1.826649
17.04763 84.236588 -1.801282
17.065247 84.3582 -1.835613
16.924618 84.303024 -1.755879
16.965012 84.354294 -1.757304
17.499428 82.262711 -1.687812
17.421047 82.2715 -1.618076
17.437958 82.198044 -1.652275
17.28997 82.194107 -1.650255
17.306206 82.244583 -1.6922899
17.204201 82.275131 -1.658481
17.365482 82.313675 -1.6193711
17.355797 82.179214 -1.653759
17.476719 82.229599 -1.61678
17.242245 82.225784 -1.651585
17.796017 82.279617 -1.648895
17.725391 82.165359 -1.683118
17.730831 82.283249 -1.621958
17.544708 82.250992 -1.688217
17.522484 82.181412 -1.6165431
17.530521 82.323288 -1.637704
17.616688 82.172409 -1.6843719
17.782814 82.25209 -1.6202739
17.685032 82.261368 -1.78306
18.036064 82.13765 -1.641291
18.02536 82.2202 -1.6316119
17.999626 82.319229 -1.6645859
17.821987 82.211807 -1.620242
18.07119 82.268967 -1.663461
17.918327 82.288864 -1.605497
17.846443 82.252701 -1.647023
17.932697 82.15538 -1.616032
17.988117 82.127579 -1.613921
17.985157 82.251663 -1.603215
18.109009 82.171738 -1.599666
18.06205 82.22139 -1.5999089
18.137905 82.280594 -1.669507
18.420174 82.101974 -1.628656
18.204117 82.249863 -1.634112
18.316868 82.178848 -1.630819
18.289749 82.304855 -1.605922
18.268627 82.219925 -1.6315171
18.287407 82.12175 -1.660064
18.340366 82.256393 -1.605343
18.361965 82.135696 -1.6305
18.145947 82.221939 -1.661785
18.159348 82.293686 -1.634426
18.395973 82.295853 -1.691062
18.407776 82.219101 -1.603074
18.199802 82.182144 -1.603343
18.172718 82.133347 -1.597717
17.385464 83.275711 -1.9470921
17.941368 83.513718 -1.941048
17.968563 83.336594 -1.925209
17.860901 83.231491 -1.960057
17.452312 83.340378 -1.94267
17.300201 83.040268 -1.971343
17.52816 83.243271 -1.9288681
17.399223 83.226517 -1.929217
17.436928 83.396591 -1.920416
17.236588 83.519608 -2.008075
17.556068 83.196671 -1.921822
17.340916 82.386734 -1.688861
17.342438 82.490372 -1.636953
17.345074 82.574814 -1.63866
17.479553 82.627487 -1.659433
17.426361 82.630722 -1.665731
17.453419 82.573288 -1.667335
17.454216 82.479385 -1.625572
17.433487 82.531326 -1.666423
17.236275 82.584061 -1.665684
17.238186 82.487961 -1.6452
17.453499 82.393021 -1.6384799
17.210827 82.371201 -1.626544
17.294018 82.54274 -1.632797
17.505623 82.599808 -1.694543
17.426834 82.479904 -1.63117
17.245766 82.327438 -1.6894341
17.326473 82.481796 -1.633935
17.310017 82.356125 -1.620662
17.407131 82.422256 -1.639992
17.428913 82.33934 -1.686727
17.282398 82.458054 -1.647511
17.281399 82.614243 -1.677338
17.268452 82.535446 -1.666559
17.330894 82.784103 -1.737576
17.305576 82.836166 -1.78189
17.266636 82.664444 -1.69757
17.279129 82.776382 -1.742375
17.243195 82.884995 -1.832037
17.4893 82.817856 -1.740971
17.314228 82.910568 -1.806618
17.491241 82.738693 -1.690652
17.32745 82.64653 -1.678301
17.236378 82.773239 -1.745257
17.347134 82.914536 -1.853873
17.352222 82.863327 -1.787481
17.343052 82.73674 -1.729077
17.393227 82.722916 -1.703364
17.41378 82.780136 -1.736444
17.365593 82.670242 -1.6657929
17.469395 82.682266 -1.655919
17.446583 82.776749 -1.7368259
17.46452 82.855576 -1.792457
17.39526 82.826096 -1.80784
17.396755 82.892715 -1.792125
17.443924 82.909378 -1.8008471
17.691483 82.557968 -1.697886
17.592854 82.493332 -1.626283
17.745781 82.573959 -1.641095
17.774422 82.463425 -1.67012
17.74638 82.371475 -1.641659
17.712463 82.490524 -1.618289
17.510269 82.520035 -1.6304131
17.714851 82.400314 -1.612663
17.585037 82.385056 -1.625752
17.659542 82.369278 -1.6211849
17.658421 82.445175 -1.613914
17.685608 82.500931 -1.674492
17.680901 82.587997 -1.645458
17.574993 82.473526 -1.617879
17.602863 82.35051 -1.783748
17.536594 82.419449 -1.6270109
17.808418 82.379166 -1.607671
17.80349 82.566849 -1.6234
17.602982 82.544357 -1.6777689
17.612766 82.599991 -1.650277
17.544579 82.612381 -1.655089
17.60001 82.86232 -1.7177171
17.679569 82.784988 -1.721777
17.634056 82.794327 -1.725641
17.593296 82.682968 -1.672756
17.576519 82.678574 -1.653723
17.552998 82.772568 -1.7372299
17.557693 82.838638 -1.728232
17.55191 82.912216 -1.824783
17.655415 82.696457 -1.6511101
17.538002 82.870865 -1.782414
17.522507 82.934769 -1.8162481
17.773453 82.886154 -1.6969121
17.720406 82.818436 -1.7156
17.515789 82.665421 -1.7269599
17.727276 82.882034 -1.7032681
17.77346 82.688187 -1.796863
17.778419 82.747604 -1.67269
17.69442 82.651993 -1.65109
17.658859 82.84877 -1.714648
17.736359 82.694138 -1.6619329
17.678905 82.926437 -1.7541879
17.204899 83.071121 -1.805361
17.482212 83.08876 -1.877162
17.206451 83.184525 -1.872104
17.469036 83.157303 -1.853181
17.443207 83.024002 -1.862816
17.402645 83.076553 -1.866438
17.421459 82.992447 -1.83015
17.337963 83.146713 -1.868372
17.506767 83.019119 -1.8562911
17.243015 83.237198 -1.8022341
17.254116 83.17128 -1.805544
17.275745 83.111435 -1.807622
17.27713 83.039352 -1.81217
17.260502 82.953781 -1.8081909
17.350948 83.186203 -1.824335
17.302673 82.981552 -1.81384
17.346577 83.105728 -1.82935
17.370132 83.041061 -1.83129
17.304749 83.54628 -1.807372
17.409416 83.338821 -1.8422641
17.305721 83.470139 -1.811605
17.411518 83.506454 -1.875945
17.386795 83.378647 -1.8409491
17.361374 83.444046 -1.837568
17.252022 83.399368 -1.851469
17.505272 83.386154 -1.84286
17.34763 83.54393 -1.872558
17.327934 83.2509 -1.8223979
17.211288 83.362961 -1.7968529
17.225304 83.299088 -1.7997479
17.450134 83.531052 -1.836341
17.46386 83.479874 -1.839195
17.481133 83.430862 -1.841539
17.448593 83.254837 -1.846024
17.326015 83.327286 -1.818158
17.307018 83.393906 -1.81584
17.641506 82.986557 -1.8150001
17.665699 83.092667 -1.807271
17.642838 83.154678 -1.8053221
17.58889 82.949142 -1.831239
17.62392 83.099564 -1.855392
17.730133 83.117874 -1.815415
17.709301 83.042953 -1.806843
17.793018 82.995956 -1.7805049
17.798752 83.240128 -1.806603
17.741138 83.239426 -1.834873
17.723701 82.93898 -1.7474051
17.714725 83.182053 -1.812566
17.786621 83.152969 -1.8379101
17.779808 83.074356 -1.814157
17.774231 82.938828 -1.745285
17.615215 83.154953 -1.85151
17.609901 83.210678 -1.804562
17.515087 83.201462 -1.900479
17.521473 83.138412 -1.8494051
17.519257 83.08049 -1.85525
17.581451 83.068924 -1.849771
17.733002 83.421249 -1.867501
17.702885 83.330612 -1.830772
17.655697 83.438644 -1.801187
17.679085 83.37291 -1.829515
17.575348 83.25032 -1.847334
17.699577 83.246231 -1.809718
17.536369 83.445145 -1.8795429
17.557354 83.299179 -1.84499
17.563263 83.482956 -1.792042
17.799835 83.45491 -1.865744
17.784321 83.302322 -1.803668
17.776978 83.368607 -1.799889
17.7528 83.424728 -1.798226
17.762112 83.496078 -1.865538
17.634686 83.498825 -1.799165
17.621929 83.29277 -1.79866
17.688122 83.312393 -1.806463
17.701641 83.53508 -1.795325
17.647243 83.246384 -1.8905391
17.728832 83.480881 -1.796564
17.617085 83.364731 -1.79474
17.598705 83.428726 -1.792403
17.853405 82.516373 -1.622835
17.858913 82.605942 -1.6365269
17.950539 82.33284 -1.667601
17.967552 82.379471 -1.6362931
17.948242 82.440414 -1.697274
17.948025 82.53508 -1.634697
17.950611 82.613266 -1.634161
18.087788 82.607925 -1.642132
17.854759 82.39122 -1.670224
17.854923 82.328506 -1.607435
18.114552 82.453659 -1.627678
17.933914 82.485092 -1.619238
18.052876 82.556656 -1.731657
18.050407 82.474319 -1.631156
18.074745 82.411057 -1.614056
17.999157 82.369797 -1.685371
18.091492 82.569565 -1.626462
18.007675 82.449997 -1.616312
17.999187 82.504593 -1.632928
18.016129 82.587875 -1.630916
18.02739 82.817551 -1.652072
18.01936 82.703842 -1.6310951
18.008778 82.894547 -1.701263
17.912411 82.860825 -1.708362
17.836262 82.923172 -1.711464
17.952087 82.91188 -1.69986
17.828667 82.861435 -1.696085
17.825077 82.809738 -1.669242
17.820637 82.712509 -1.715318
18.101608 82.760056 -1.688944
18.100029 82.877914 -1.672635
17.933979 82.929489 -1.698325
17.874805 82.703751 -1.6686
17.933147 82.764267 -1.674319
17.901619 82.650131 -1.635396
18.049183 82.831314 -1.64948
18.06142 82.775711 -1.65241
18.079914 82.713882 -1.666594
18.043598 82.661942 -1.65889
17.877693 82.889145 -1.707738
17.871223 82.769058 -1.637622
17.977112 82.848251 -1.65391
17.968769 82.793045 -1.695825
17.940189 82.733109 -1.634887
18.138531 82.370285 -1.612134
18.127567 82.52449 -1.626827
18.195568 82.611099 -1.651046
18.388718 82.514664 -1.643213
18.404133 82.430069 -1.630635
18.187775 82.372726 -1.6645319
18.403858 82.368515 -1.6169569
18.320976 82.544266 -1.6462049
18.304871 82.43837 -1.619464
18.202946 82.506882 -1.622364
18.223606 82.399216 -1.623264
18.354324 82.403336 -1.618211
18.35537 82.474655 -1.63134
18.385559 82.544815 -1.817808
18.16827 82.623795 -1.727879
18.382999 82.621231 -1.610963
18.152943 82.573013 -1.6396199
18.225857 82.344925 -1.607849
18.162643 82.421616 -1.626325
18.265415 82.3629 -1.622758
18.263233 82.580826 -1.648061
18.252239 82.471359 -1.621116
18.255169 82.695572 -1.615418
18.37244 82.82225 -1.66126
18.338863 82.771225 -1.632984
18.388218 82.680405 -1.63311
18.282169 82.802658 -1.663474
18.166592 82.698044 -1.661162
18.147636 82.770584 -1.645769
18.183197 82.833603 -1.640161
18.282791 82.900894 -1.658548
18.317375 82.657181 -1.613368
18.337749 82.709457 -1.634971
18.127934 82.641739 -1.6540281
18.128586 82.926956 -1.687039
18.316452 82.839371 -1.677264
18.42318 82.767807 -1.654757
18.230484 82.763657 -1.6395561
18.132286 82.696182 -1.623787
18.213352 82.933609 -1.678445
18.401836 82.89827 -1.650227
17.852077 83.130264 -1.809512
18.100048 83.001846 -1.737087
18.049583 82.943069 -1.70557
18.045879 83.096725 -1.808177
18.042492 83.174088 -1.870369
17.866951 83.079544 -1.815401
17.819027 83.066025 -1.850352
17.991341 83.20372 -1.872967
17.830711 83.124619 -1.835978
18.016441 83.114975 -1.822798
17.823616 83.184128 -1.808269
17.842457 83.020767 -1.787588
17.967236 83.114609 -1.881408
17.970295 83.060776 -1.804368
17.912773 82.987259 -1.805914
17.894363 83.055222 -1.79311
18.005199 82.949905 -1.709475
17.984093 83.015366 -1.798107
18.03022 83.026138 -1.7912869
18.034264 83.531418 -1.824736
17.819683 83.337112 -1.873749
17.890247 83.337051 -1.868855
18.017162 83.38475 -1.877827
18.063858 83.538376 -1.862094
18.050499 83.461838 -1.827394
18.077404 83.398117 -1.828913
18.083797 83.322647 -1.832716
18.004074 83.269089 -1.885245
17.863266 83.295059 -1.8770339
17.955383 83.246323 -1.872063
17.845821 83.372757 -1.870047
17.951862 83.424026 -1.8789001
17.872398 83.504593 -1.8733521
18.090107 83.315628 -1.882497
18.104313 83.25502 -1.834999
18.099491 83.527634 -1.801039
18.107296 83.459213 -1.80463
18.353432 82.95903 -1.678714
18.121227 83.159042 -1.821787
18.386292 83.065994 -1.7006741
18.374607 83.141098 -1.731405
18.264236 83.223831 -1.845945
18.240528 83.140274 -1.776147
18.26038 83.072708 -1.713501
18.316067 83.175858 -1.787581
18.347755 83.228287 -1.797002
18.265743 82.995224 -1.696208
18.40469 83.111771 -1.79969
18.309589 82.950089 -1.707044
18.164127 83.015152 -1.7268471
18.146576 83.066238 -1.770466
18.178844 83.207687 -1.814523
18.338425 83.000015 -1.6885
18.300217 83.073746 -1.708614
18.234856 83.015915 -1.71826
18.216873 83.099197 -1.753868
18.237865 83.311478 -1.811839
18.226475 83.376022 -1.808533
18.208527 83.436447 -1.806073
18.221233 83.528 -1.788906
18.377972 83.508774 -1.887961
18.16996 83.276199 -1.810925
18.157951 83.342606 -1.807737
18.139362 83.404922 -1.805367
18.187408 83.494827 -1.804037
18.342377 83.445175 -1.8557481
18.365784 83.379501 -1.85958
18.290569 83.269333 -1.799031
18.293793 83.418839 -1.860685
18.316116 83.508591 -1.8524981
18.281406 83.339066 -1.795506
18.262249 83.402695 -1.793173
18.239902 83.46431 -1.791237
18.416367 83.332077 -1.856295
18.417862 83.37645 -1.889106
18.409828 83.456192 -1.895937
18.121773 83.39769 -1.879024
18.655865 82.321823 -1.636528
18.672729 82.226212 -1.624539
18.70356 82.228043 -1.686761
18.690002 82.154831 -1.611001
18.618179 82.207565 -1.612496
18.64999 82.168503 -1.63745
18.499954 82.297195 -1.614845
18.50425 82.250961 -1.689111
18.600212 82.088058 -1.616328
18.707603 82.282639 -1.635412
18.636555 82.278641 -1.623794
18.563946 82.127731 -1.615992
18.559357 82.270126 -1.612373
18.461952 82.173355 -1.602154
18.516251 82.127853 -1.6012321
18.905834 82.121262 -1.632066
18.922268 82.177689 -1.765522
18.846401 82.233444 -1.747352
18.850681 82.117905 -1.619107
18.767925 82.191849 -1.6853631
18.794556 82.156021 -1.620555
18.977772 82.169235 -1.740954
18.967728 82.090256 -1.629801
18.97683 82.279892 -1.615908
18.746323 82.322708 -1.6841969
18.765942 82.248276 -1.633536
18.953735 82.218948 -1.596297
18.8573 82.309799 -1.597271
18.926792 82.278946 -1.594489
19.016853 82.184097 -1.594218
19.256172 82.13768 -1.618548
19.122398 82.163071 -1.614096
19.264965 82.198288 -1.6331739
19.132206 82.250992 -1.619257
19.060757 82.213577 -1.61475
19.062775 82.295456 -1.678377
19.095318 82.292343 -1.618934
19.144737 82.202225 -1.696641
19.29388 82.297104 -1.662569
19.30603 82.106827 -1.617195
19.18285 82.26918 -1.633767
19.22049 82.075455 -1.613732
19.212143 82.12645 -1.813659
19.22541 82.234879 -1.6332541
19.215786 82.176102 -1.618647
19.167629 82.053635 -1.592211
19.208569 82.308395 -1.601195
19.296337 82.209702 -1.601277
19.2491 82.256699 -1.6015871
19.080032 82.149551 -1.592136
19.130257 82.106094 -1.591466
19.352837 82.073746 -1.616258
19.611027 82.180771 -1.732031
19.587536 82.15416 -1.613255
19.594604 82.234787 -1.681844
19.600151 82.074844 -1.63754
19.462547 82.129288 -1.62744
19.547287 82.202835 -1.612893
19.579098 82.266891 -1.652925
19.486408 82.226028 -1.680403
19.624672 82.28624 -1.672134
19.426025 82.17897 -1.62672
19.431015 82.272598 -1.747139
19.64402 82.117386 -1.611784
19.640163 82.213699 -1.653767
19.381939 82.317642 -1.616923
19.536736 82.166946 -1.637627
19.49424 82.242386 -1.613994
19.525894 82.299271 -1.653865
19.447788 82.286789 -1.614362
19.376778 82.219437 -1.627507
19.360031 82.174362 -1.599214
19.51907 82.046951 -1.596518
19.401001 82.123215 -1.5996031
19.458374 82.083786 -1.598237
18.775799 83.490799 -1.958509
18.536736 82.592392 -1.627947
18.497738 82.539474 -1.607906
18.58741 82.564316 -1.626073
18.563576 82.504471 -1.605494
18.555962 82.403152 -1.638376
18.445343 82.58345 -1.6089081
18.449928 82.511063 -1.767393
18.472866 82.399002 -1.627745
18.447029 82.329239 -1.616506
18.51746 82.478348 -1.772995
18.525135 82.357132 -1.626673
18.607498 82.36351 -1.637264
18.714153 82.552261 -1.629576
18.705109 82.466293 -1.622403
18.616173 82.461014 -1.604488
18.616493 82.619919 -1.632237
18.644756 82.486465 -1.625595
18.631779 82.531693 -1.625073
18.668518 82.588303 -1.630493
18.682144 82.42662 -1.60207
18.542278 82.796249 -1.6681319
18.571983 82.868484 -1.679394
18.696972 82.732132 -1.6432379
18.69878 82.78035 -1.636142
18.570381 82.922897 -1.7095799
18.640903 82.915695 -1.639876
18.653152 82.828659 -1.6757751
18.667606 82.779007 -1.728871
18.433079 82.84111 -1.6513439
18.435528 82.649277 -1.6316839
18.643795 82.718307 -1.701205
18.673843 82.666519 -1.6161439
18.597691 82.696823 -1.619576
18.633751 82.81514 -1.638669
18.558037 82.647171 -1.6348079
18.442047 82.756516 -1.626778
18.514805 82.723282 -1.623701
18.511604 82.81395 -1.647372
18.532955 82.889969 -1.680917
18.544628 82.720596 -1.648609
18.736599 82.376572 -1.606601
18.972359 82.396683 -1.621222
18.79884 82.415878 -1.684919
18.91996 82.426834 -1.622981
18.831371 82.499649 -1.624414
18.796146 82.587601 -1.6124099
18.877213 82.46434 -1.623491
18.86908 82.556229 -1.6093169
18.850853 82.609177 -1.639807
19.018055 82.337814 -1.621366
19.031769 82.426682 -1.6059639
19.031902 82.506424 -1.633355
19.031311 82.61586 -1.622734
18.915535 82.577621 -1.637158
18.97522 82.468124 -1.607316
18.898117 82.380875 -1.6814981
18.925415 82.514236 -1.607968
18.963821 82.535141 -1.636385
18.945728 82.596664 -1.681224
18.749176 82.601669 -1.6414551
18.775963 82.528152 -1.626581
18.736629 82.627975 -1.614103
18.748158 82.392593 -1.59965
18.801025 82.34996 -1.598637
18.944324 82.773575 -1.693462
18.754528 82.906265 -1.63265
18.776928 82.823318 -1.703207
18.763866 82.745895 -1.633613
18.972534 82.715775 -1.692358
18.734882 82.682114 -1.6435961
18.966049 82.648941 -1.625276
18.987164 82.884201 -1.617028
18.82769 82.761765 -1.666243
18.812492 82.922775 -1.640754
19.013142 82.935837 -1.693503
19.001495 82.855637 -1.630587
18.734715 82.890915 -1.633539
18.817852 82.700272 -1.792141
18.907486 82.686752 -1.627087
18.907104 82.736435 -1.694805
18.79607 82.643661 -1.685832
18.86272 82.888229 -1.625118
18.881035 82.788132 -1.697816
18.852329 82.727066 -1.628531
18.894535 82.863907 -1.731797
18.425453 83.199936 -1.7925889
18.425549 83.04512 -1.701468
18.691341 83.038864 -1.6473579
18.668697 83.236191 -1.749697
18.691399 83.108109 -1.7361341
18.465431 83.234116 -1.803521
18.475143 83.136002 -1.7065459
18.6763 83.145218 -1.712137
18.666294 83.102707 -1.738542
18.644501 83.027359 -1.683682
18.720375 82.98793 -1.648548
18.597076 83.156631 -1.719671
18.61898 82.981827 -1.637738
18.689762 83.159531 -1.808412
18.426086 82.993088 -1.666824
18.526176 83.093491 -1.700385
18.566734 83.199875 -1.76761
18.576069 83.100082 -1.702865
18.566021 83.020584 -1.65355
18.523941 82.986069 -1.778217
18.450748 82.959244 -1.650498
18.461235 83.074753 -1.710649
18.690536 83.371964 -1.842828
18.716949 83.4207 -1.8076431
18.481216 83.448044 -1.8285379
18.459408 83.495071 -1.8267879
18.689991 83.312454 -1.7990561
18.712643 83.243942 -1.745138
18.708717 83.487442 -1.803987
18.58567 83.284744 -1.8159471
18.504608 83.274063 -1.809731
18.578529 83.398026 -1.802702
18.538513 83.363083 -1.830019
18.519154 83.466843 -1.886378
18.690559 83.547958 -1.801592
18.6325 83.35408 -1.801077
18.601318 83.450912 -1.883091
18.450634 83.331284 -1.8549809
18.6567 83.418625 -1.888817
18.431145 83.537766 -1.8260469
18.536282 83.524734 -1.798475
18.655575 83.543869 -1.8652591
18.562431 83.464371 -1.799998
18.840843 83.054886 -1.661731
18.884583 82.957504 -1.638046
18.872211 83.188156 -1.698988
19.023064 83.021225 -1.6504509
19.00473 83.189133 -1.685532
18.763126 83.080948 -1.665864
18.761345 83.152267 -1.705853
18.765202 83.030807 -1.674364
18.88982 83.167435 -1.809968
18.888634 83.099594 -1.669293
18.898735 83.053604 -1.70301
18.983047 82.954147 -1.630772
18.964722 83.02858 -1.70017
18.8186 83.01088 -1.696293
18.788898 83.096909 -1.679058
18.974937 83.083939 -1.691654
18.974899 83.146866 -1.661389
18.801334 83.182632 -1.734971
18.959969 83.206009 -1.688275
18.932266 82.978928 -1.691623
18.781376 83.425613 -1.864719
18.77858 83.369827 -1.832459
18.763626 83.319656 -1.792417
18.902752 83.273941 -1.736848
18.903553 83.37471 -1.79838
18.919228 83.49501 -1.880061
18.765102 83.253799 -1.739639
19.002735 83.452347 -1.818323
19.001312 83.313156 -1.715144
18.807972 83.244492 -1.755811
18.794262 83.338028 -1.7961169
18.95171 83.292526 -1.7262729
18.987038 83.400192 -1.817626
18.966614 83.466721 -1.887431
18.850403 83.415665 -1.800109
18.884617 83.247025 -1.726606
18.795586 83.529068 -1.797429
18.810974 83.465134 -1.8002
18.789753 83.393631 -1.803319
19.28738 82.522537 -1.752552
19.260021 82.464127 -1.616187
19.253334 82.403641 -1.641748
19.132328 82.530472 -1.6209249
19.197796 82.498276 -1.6183749
19.202156 82.44072 -1.642951
19.07383 82.459885 -1.63333
19.131596 82.464218 -1.6465
19.091713 82.387711 -1.60426
19.274872 82.583267 -1.687646
19.298149 82.362137 -1.641326
19.175316 82.524612 -1.659844
19.327133 82.556473 -1.6872489
19.342228 82.36705 -1.616556
19.083416 82.574173 -1.621648
19.040199 82.622025 -1.661513
19.296143 82.412094 -1.61692
19.325485 82.477402 -1.779144
19.141865 82.3423 -1.603604
19.31691 82.913895 -1.6357141
19.305916 82.862717 -1.69015
19.33709 82.780136 -1.616045
19.32869 82.695663 -1.60456
19.048523 82.928909 -1.62752
19.064121 82.851303 -1.6136611
19.070759 82.673691 -1.691182
19.16869 82.632004 -1.690268
19.277988 82.808395 -1.618508
19.258247 82.731369 -1.6072609
19.145527 82.758621 -1.626357
19.144482 82.820938 -1.609953
19.186043 82.883957 -1.6201971
19.207005 82.636246 -1.690015
19.095203 82.663132 -1.690956
19.19688 82.72908 -1.624516
19.208038 82.780289 -1.607932
19.215668 82.834671 -1.621371
19.037281 82.694626 -1.69019
19.120567 82.908493 -1.623458
19.110317 82.800095 -1.626063
19.622604 82.387314 -1.616704
19.357994 82.428085 -1.680704
19.524883 82.447067 -1.619559
19.422657 82.367874 -1.655161
19.579964 82.422012 -1.617275
19.436283 82.41597 -1.6768579
19.576256 82.359116 -1.678252
19.501141 82.376602 -1.680313
19.61565 82.55986 -1.610918
19.426228 82.495377 -1.688587
19.572193 82.598434 -1.6113729
19.49498 82.491898 -1.618412
19.423027 82.572159 -1.617831
19.458939 82.531937 -1.618122
19.459805 82.347672 -1.6541589
19.459717 82.618729 -1.6001641
19.497066 82.562088 -1.600843
19.598839 82.466965 -1.599488
19.554523 82.518845 -1.599488
19.39658 82.933609 -1.687089
19.604488 82.741653 -1.670612
19.532051 82.639511 -1.611421
19.521965 82.752243 -1.631074
19.521637 82.818008 -1.6690921
19.526001 82.875687 -1.6882761
19.633751 82.872147 -1.6316299
19.628376 82.675095 -1.6283669
19.45179 82.85466 -1.671378
19.473846 82.79454 -1.63186
19.442471 82.715195 -1.612727
19.640697 82.698135 -1.672612
19.552135 82.646164 -1.756281
19.583324 82.719193 -1.62878
19.363976 82.651535 -1.617269
19.383278 82.742905 -1.615195
19.384579 82.884201 -1.632678
19.395287 82.762253 -1.683215
19.429146 82.839249 -1.63227
19.581375 82.915634 -1.632707
19.405857 82.664627 -1.6011781
19.103657 83.159836 -1.667359
19.090374 83.070053 -1.658165
19.107384 83.000839 -1.6455539
19.232929 83.213181 -1.728984
19.221985 83.098221 -1.645584
19.213692 83.045273 -1.719927
19.208462 82.987717 -1.67934
19.038441 83.11586 -1.659224
19.148865 83.177872 -1.6469541
19.146317 83.118362 -1.650056
19.070278 83.240036 -1.6997499
19.292141 82.96254 -1.673985
19.312454 83.053696 -1.643468
19.324032 83.096268 -1.637898
19.077301 83.047714 -1.685454
19.044483 83.163773 -1.661623
19.247032 83.121506 -1.70748
19.253605 83.068039 -1.635655
19.265903 82.95491 -1.63687
19.178314 82.972214 -1.642152
19.176178 83.04567 -1.653513
19.299698 83.191055 -1.635764
19.31155 83.260483 -1.674396
19.281128 83.292465 -1.674312
19.28088 83.365707 -1.713464
19.248367 83.418564 -1.743102
19.113079 83.425552 -1.772413
19.118652 83.339493 -1.739041
19.117336 83.275772 -1.711187
19.256641 83.478348 -1.7974221
19.05265 83.293411 -1.714138
19.304688 83.49324 -1.806797
19.300724 83.430161 -1.737444
19.039722 83.368729 -1.76836
19.185223 83.27327 -1.6854351
19.169209 83.356094 -1.728969
19.164356 83.446976 -1.780509
19.150204 83.546616 -1.803584
19.054737 83.429306 -1.843385
19.078712 83.508621 -1.7985491
19.329086 83.336807 -1.714947
19.203949 83.406723 -1.748809
19.208138 83.464401 -1.7877899
19.215694 83.519638 -1.826308
19.585129 83.132278 -1.619262
19.579563 83.026352 -1.616111
19.555878 82.9767 -1.630905
19.495682 83.154861 -1.624185
19.476982 83.003342 -1.6348571
19.445133 83.067307 -1.698148
19.471188 83.2202 -1.66287
19.643047 82.985367 -1.6141011
19.640091 83.236923 -1.643784
19.502621 83.059219 -1.6194741
19.530964 82.939041 -1.66048
19.392647 83.16954 -1.630501
19.408733 83.082077 -1.624524
19.618885 83.145065 -1.6531579
19.616047 83.007553 -1.627866
19.610001 82.955643 -1.643005
19.610527 83.058151 -1.671568
19.35696 83.056686 -1.664623
19.366543 83.107346 -1.640218
19.374893 83.205246 -1.6676871
19.398087 83.030441 -1.638805
19.61729 83.254166 -1.654593
19.453182 83.449783 -1.727344
19.418636 83.307632 -1.66817
19.428452 83.394058 -1.7061909
19.395153 83.448135 -1.728792
19.421322 83.508926 -1.7978311
19.375896 83.275803 -1.661611
19.345707 83.394363 -1.714895
19.353172 83.444748 -1.730814
19.487785 83.361069 -1.739287
19.587936 83.418045 -1.715006
19.470436 83.313126 -1.704872
19.560963 83.255234 -1.648669
19.51173 83.293655 -1.649968
19.612843 83.305252 -1.652624
19.625053 83.421738 -1.7110161
19.607315 83.484299 -1.761418
19.492481 83.376633 -1.701249
19.530766 83.500778 -1.769596
19.898094 82.101334 -1.734697
19.926727 82.152267 -1.612235
19.901016 82.2892 -1.606988
19.831093 82.155624 -1.727235
19.84153 82.074356 -1.652831
19.752289 82.212021 -1.686468
19.755306 82.129654 -1.653656
19.736889 82.261307 -1.67246
19.690956 82.179123 -1.653394
19.702648 82.075272 -1.680436
19.741234 82.032791 -1.61067
19.800709 82.277145 -1.597105
19.92366 82.198441 -1.593697
19.852329 82.23082 -1.596421
19.909229 82.051193 -1.588591
20.206646 81.988052 -1.587868
19.978497 82.014969 -1.58634
20.130527 82.278122 -1.6188771
20.141609 82.09697 -1.817305
20.159184 82.210861 -1.664106
20.199123 82.253067 -1.6158
20.109779 82.028305 -1.608598
20.043938 82.111679 -1.606758
20.076824 82.205978 -1.671047
20.055538 82.298782 -1.6227061
20.251503 82.269547 -1.679558
19.957836 82.261978 -1.6048959
20.254242 82.151901 -1.616624
20.214066 82.198105 -1.616298
20.149742 82.293259 -1.681283
19.965408 82.317032 -1.664304
20.211563 82.104904 -1.5984631
20.256348 82.069138 -1.597985
20.037189 82.113968 -1.591302
20.014683 82.235031 -1.602801
20.098972 82.075607 -1.589591
19.965729 82.145706 -1.59403
20.119179 82.174515 -1.599823
20.1479 82.028214 -1.589241
20.538635 81.987442 -1.60838
20.358452 82.008347 -1.595391
20.364697 82.154648 -1.655493
20.524895 82.279984 -1.7151639
20.495922 82.216202 -1.613116
20.449577 82.235336 -1.659778
20.41851 82.25563 -1.659699
20.319843 82.125259 -1.613919
20.322929 82.179123 -1.66855
20.329529 82.256821 -1.677227
20.432507 82.155991 -1.667832
20.363403 82.081924 -1.6138639
20.469551 82.138931 -1.6702811
20.441658 82.065659 -1.609637
20.537273 82.167343 -1.613465
20.526974 82.115585 -1.672767
20.494789 82.030136 -1.60844
20.378307 82.288589 -1.616403
20.410202 82.053268 -1.706321
20.407505 82.105209 -1.66014
20.288971 82.023392 -1.599135
20.487591 82.284744 -1.583748
20.550125 82.244186 -1.58213
20.809742 81.984573 -1.605018
20.638351 82.005112 -1.658035
20.677113 82.010147 -1.6540689
20.768387 82.311569 -1.637547
20.771023 82.187607 -1.713374
20.859554 82.234177 -1.6452399
20.755184 82.022629 -1.606131
20.633636 82.089859 -1.609802
20.610683 82.141769 -1.658909
20.700714 82.060928 -1.607241
20.647839 82.089127 -1.673046
20.834282 82.151871 -1.671531
20.721249 82.323776 -1.6402659
20.579319 82.128708 -1.610909
20.572491 82.191116 -1.622038
20.734955 82.245987 -1.5934221
20.701607 82.129959 -1.6027761
20.678677 82.166245 -1.578557
20.792797 82.208054 -1.591956
20.619244 82.208511 -1.579849
20.817223 82.096542 -1.573983
20.863491 82.179916 -1.589079
20.680408 82.286575 -1.594533
20.747929 82.13121 -1.5762711
19.712337 82.582901 -1.628291
19.718502 82.434464 -1.609651
19.924034 82.59816 -1.628026
19.859962 82.328873 -1.607048
19.878166 82.473801 -1.623641
19.809563 82.361435 -1.608323
19.780533 82.555466 -1.625235
19.919979 82.530472 -1.6677999
19.792934 82.585983 -1.672457
19.809845 82.500656 -1.626702
19.870693 82.559616 -1.668599
19.92392 82.430923 -1.62322
19.740414 82.50087 -1.822246
19.952908 82.511215 -1.667266
19.775051 82.406296 -1.607568
19.677773 82.362747 -1.614414
19.667019 82.626633 -1.628706
19.652851 82.516739 -1.6112731
19.663136 82.428665 -1.597452
19.711029 82.379471 -1.597111
19.76236 82.332748 -1.596429
19.675426 82.748276 -1.707625
19.952507 82.697708 -1.609458
19.844341 82.700546 -1.627308
19.662979 82.813492 -1.633073
19.666264 82.919022 -1.616153
19.880814 82.647049 -1.628028
19.832321 82.636459 -1.681456
19.806618 82.697128 -1.6611969
19.78038 82.650955 -1.680539
19.905045 82.748001 -1.6097831
19.936508 82.83107 -1.663921
19.867329 82.929916 -1.653874
19.854385 82.79631 -1.610445
19.85865 82.753677 -1.6879849
19.77169 82.729752 -1.630553
19.749313 82.896988 -1.6255341
19.810295 82.786484 -1.639143
19.793827 82.838333 -1.612124
19.824474 82.912827 -1.666028
19.690849 82.669022 -1.671512
19.735504 82.783646 -1.629832
19.730003 82.878525 -1.61414
20.102997 82.372971 -1.732435
20.084305 82.622177 -1.605069
20.047916 82.538071 -1.657086
20.039383 82.468094 -1.664993
20.185337 82.516373 -1.611529
20.169983 82.455063 -1.620059
20.1992 82.462936 -1.652146
20.223518 82.414261 -1.618966
20.208515 82.355484 -1.685234
20.155418 82.361008 -1.684374
20.009392 82.34108 -1.62313
20.123058 82.500687 -1.620428
19.969444 82.602066 -1.656918
20.101646 82.426224 -1.664853
19.985485 82.454208 -1.8112561
19.963371 82.38356 -1.623553
20.000164 82.572128 -1.624413
19.99118 82.49794 -1.665486
20.115551 82.618881 -1.588771
20.22625 82.554703 -1.599651
20.187256 82.583084 -1.5861779
20.249073 82.54097 -1.584569
20.003448 82.649857 -1.608794
20.002045 82.701248 -1.689155
19.955486 82.789383 -1.747378
20.105656 82.676285 -1.6873339
20.100529 82.757889 -1.605262
20.040398 82.921402 -1.744204
19.97113 82.848953 -1.652389
19.954483 82.897751 -1.607142
20.104477 82.816452 -1.638499
20.053925 82.805771 -1.605656
20.152336 82.776596 -1.637638
20.172371 82.829422 -1.661504
20.165638 82.891739 -1.757588
20.093723 82.867691 -1.6928639
20.202469 82.794632 -1.662179
20.059746 82.687576 -1.6880389
20.001404 82.926498 -1.667451
20.007462 82.853836 -1.6060489
20.170361 82.725845 -1.602412
20.217197 82.678452 -1.602015
19.952866 83.165787 -1.624593
19.720242 83.060745 -1.613948
19.909416 83.142288 -1.699048
19.900223 83.200302 -1.6263061
19.734856 83.143478 -1.7282881
19.719181 83.21904 -1.638893
19.700871 82.985916 -1.670194
19.828823 82.973251 -1.611423
19.801922 83.062729 -1.6726691
19.814697 83.212753 -1.632004
19.905003 83.085434 -1.704716
19.901627 82.941879 -1.608234
19.784981 83.158615 -1.707588
19.747372 83.108444 -1.6734101
19.762753 83.009323 -1.613911
19.758064 82.945358 -1.6688941
19.853649 83.009872 -1.644334
19.865459 83.202072 -1.68646
19.657707 83.099533 -1.616082
19.839645 83.071091 -1.692129
19.681805 83.479965 -1.73423
19.663292 83.545364 -1.764969
19.664333 83.3535 -1.6852781
19.847603 83.267136 -1.636501
19.739655 83.262802 -1.658469
19.788116 83.425613 -1.6933
19.691299 83.43074 -1.702772
19.712791 83.371078 -1.705312
19.803741 83.532364 -1.726698
19.792282 83.386063 -1.6864949
19.798351 83.274551 -1.634547
19.764698 83.522354 -1.7336529
19.855831 83.410355 -1.66627
19.914337 83.499161 -1.687072
19.928574 83.432144 -1.685358
19.69754 83.294479 -1.640298
19.910122 83.379227 -1.68567
19.926247 83.271927 -1.626074
19.862598 83.471695 -1.720171
19.848339 83.528915 -1.721877
20.209263 83.057999 -1.623227
20.197681 82.98317 -1.618398
19.956493 82.949326 -1.669314
19.979031 83.01857 -1.694585
20.210983 83.207047 -1.610469
19.978909 83.226212 -1.6289999
20.249878 82.957565 -1.690657
20.25111 83.021683 -1.622666
20.154392 83.023361 -1.618921
20.143543 82.973648 -1.69398
20.25275 83.218826 -1.668166
20.170731 83.096848 -1.623359
20.155537 83.187546 -1.710992
20.088413 83.047745 -1.6222399
20.05183 83.092972 -1.621961
20.064999 83.154099 -1.627466
20.023521 83.191208 -1.62802
20.012119 83.136063 -1.62208
20.045643 83.201523 -1.650641
20.127804 83.039841 -1.6851259
20.11623 83.124191 -1.625627
20.118748 83.194443 -1.635408
20.023647 83.016861 -1.6914589
20.123402 83.473282 -1.642458
20.179184 83.439713 -1.640347
20.086842 83.484421 -1.66053
20.185993 83.355392 -1.643916
20.140911 83.243637 -1.613184
20.101089 83.366776 -1.64982
20.05809 83.39183 -1.7394609
20.050568 83.26796 -1.617934
20.168571 83.520126 -1.721796
20.017616 83.328629 -1.680601
20.026001 83.385269 -1.654487
20.014427 83.472214 -1.650946
19.989491 83.532303 -1.710403
20.234123 83.547043 -1.705797
20.257702 83.335464 -1.6396509
20.207783 83.440903 -1.662529
20.221489 83.36824 -1.706358
20.216946 83.315811 -1.723575
19.974022 83.419693 -1.6562769
19.967213 83.302414 -1.6310689
20.401436 82.546127 -1.6446
20.528114 82.337692 -1.6884201
20.382915 82.485336 -1.803619
20.496647 82.508438 -1.630792
20.463539 82.596634 -1.658699
20.457226 82.399673 -1.680874
20.398438 82.428726 -1.679144
20.478298 82.501907 -1.642455
20.334129 82.335678 -1.616414
20.264114 82.358902 -1.659297
20.273808 82.44072 -1.6105421
20.500305 82.568222 -1.6583411
20.562443 82.500992 -1.659669
20.550106 82.596512 -1.673174
20.336761 82.432968 -1.584968
20.466499 82.453568 -1.598613
20.431709 82.330154 -1.584705
20.384686 82.555649 -1.598009
20.294476 82.487991 -1.584604
20.418991 82.499954 -1.599014
20.523869 82.414352 -1.597155
20.347305 82.609207 -1.597356
20.385796 82.382584 -1.584672
20.353195 82.819138 -1.696014
20.469418 82.752914 -1.614035
20.482403 82.801437 -1.618554
20.468018 82.843796 -1.68025
20.358562 82.91011 -1.619831
20.387104 82.763168 -1.686222
20.356693 82.685471 -1.659252
20.329185 82.722366 -1.65807
20.487335 82.648453 -1.671191
20.264507 82.709213 -1.6339639
20.50174 82.906418 -1.625435
20.516136 82.837692 -1.676519
20.331467 82.865982 -1.6164221
20.324394 82.787003 -1.687113
20.541359 82.855667 -1.625715
20.518669 82.76149 -1.6188411
20.542427 82.673569 -1.612655
20.510296 82.711655 -1.613904
20.524021 82.639816 -1.7848541
20.31908 82.674728 -1.632319
20.394051 82.915085 -1.675037
20.287838 82.905624 -1.616949
20.397667 82.843002 -1.613091
20.428665 82.794327 -1.614164
20.422894 82.745712 -1.686563
20.407078 82.63826 -1.659488
20.280586 82.642532 -1.599862
20.767929 82.48555 -1.609584
20.762737 82.376114 -1.655273
20.769913 82.618851 -1.610798
20.693531 82.599899 -1.729761
20.705383 82.415878 -1.6560839
20.723248 82.52327 -1.6101201
20.604877 82.56102 -1.673472
20.646835 82.608932 -1.6095819
20.851784 82.335648 -1.651958
20.843739 82.541214 -1.611354
20.602383 82.475693 -1.658794
20.800117 82.348892 -1.654901
20.834579 82.465317 -1.6062289
20.791355 82.567398 -1.613229
20.579987 82.422745 -1.641917
20.645538 82.53389 -1.673872
20.638058 82.390671 -1.6402889
20.687901 82.350449 -1.640277
20.629189 82.329727 -1.595291
20.574856 82.370773 -1.5964
20.677959 82.682144 -1.612818
20.663895 82.747086 -1.678423
20.625866 82.709152 -1.614686
20.706417 82.885208 -1.661321
20.682262 82.797714 -1.832828
20.795265 82.909866 -1.695085
20.726437 82.750107 -1.6192859
20.813366 82.655045 -1.61911
20.580059 82.741348 -1.6156909
20.843105 82.93074 -1.621241
20.859837 82.788467 -1.657999
20.720802 82.647903 -1.612239
20.846069 82.685745 -1.672454
20.765568 82.924545 -1.692924
20.589848 82.637497 -1.611722
20.599289 82.92189 -1.609426
20.617188 82.830002 -1.622
20.634186 82.763748 -1.6248209
20.763901 82.859207 -1.658843
20.756824 82.693283 -1.620652
20.782684 82.80867 -1.6036969
20.856686 82.740646 -1.593733
20.805592 82.787125 -1.594426
20.724895 82.813797 -1.598188
20.64315 82.921341 -1.5975209
20.687244 82.869705 -1.597514
20.433235 83.157547 -1.700531
20.350731 83.03746 -1.628217
20.335102 82.949539 -1.62154
20.309238 83.044693 -1.693683
20.306885 83.094254 -1.764029
20.354649 83.1371 -1.604691
20.445004 83.03392 -1.604347
20.452381 82.950607 -1.626242
20.525261 83.176804 -1.6298
20.49538 83.130447 -1.702077
20.533401 83.06633 -1.704424
20.468102 83.175369 -1.842091
20.404774 83.088638 -1.604009
20.28846 83.073532 -1.630471
20.277748 83.168686 -1.608092
20.294693 83.176285 -1.668663
20.389927 82.98616 -1.628499
20.5121 82.99678 -1.601961
20.562618 82.94902 -1.601275
20.404888 83.244339 -1.76844
20.415733 83.293015 -1.63466
20.413631 83.358994 -1.6184421
20.415165 83.476181 -1.739453
20.366768 83.512436 -1.684997
20.346992 83.41127 -1.629329
20.429214 83.526566 -1.6996779
20.37088 83.328384 -1.635674
20.319592 83.309128 -1.636616
20.264778 83.426346 -1.6346411
20.368458 83.273972 -1.635224
20.466644 83.416458 -1.646868
20.484978 83.364456 -1.621888
20.44017 83.255081 -1.6309479
20.302578 83.371902 -1.625114
20.537884 83.246231 -1.628366
20.511032 83.338333 -1.613112
20.520603 83.410812 -1.646114
20.501751 83.502457 -1.6306159
20.516716 83.542953 -1.651152
20.331673 83.442398 -1.706727
20.557114 83.480423 -1.670469
20.311497 83.501022 -1.723924
20.824608 82.97731 -1.620962
20.712193 83.10405 -1.625131
20.790405 83.087692 -1.642557
20.577656 83.144913 -1.627988
20.570087 83.202164 -1.629052
20.765945 83.17482 -1.6052589
20.85281 83.20372 -1.631973
20.862949 83.009689 -1.642844
20.655464 83.006638 -1.701816
20.669788 83.072495 -1.626008
20.657295 83.130997 -1.627436
20.732006 83.048386 -1.6229531
20.598835 82.973129 -1.6615911
20.695374 83.210953 -1.607901
20.778263 83.012741 -1.621958
20.626827 83.188095 -1.647655
20.748676 83.111862 -1.643963
20.636848 83.088211 -1.701261
20.771038 83.228958 -1.76796
20.833221 83.136917 -1.602952
20.806152 83.538162 -1.615943
20.631588 83.251694 -1.609865
20.803547 83.457382 -1.612229
20.62413 83.362991 -1.63877
20.674168 83.486191 -1.677932
20.731632 83.278427 -1.636101
20.640141 83.426346 -1.667828
20.714119 83.365555 -1.666694
20.672817 83.317307 -1.63798
20.702438 83.462936 -1.677871
20.70433 83.537796 -1.636395
20.595474 83.450821 -1.669654
20.628311 83.503098 -1.621799
20.781387 83.329788 -1.663942
20.568859 83.404556 -1.6402839
20.850597 83.327805 -1.684203
20.859264 83.41478 -1.610779
20.852543 83.4608 -1.711161
20.818699 83.399124 -1.673779
20.797169 83.244217 -1.6334929
20.584755 83.30336 -1.610139
20.750603 83.433792 -1.676488
20.758038 83.506607 -1.612624
21.100494 81.993423 -1.673643
20.972572 82.015427 -1.6398
21.062893 81.937485 -1.568114
20.983723 81.963791 -1.571404
21.092098 81.945511 -1.5965461
20.933456 82.011734 -1.571714
21.141254 81.997147 -1.579986
21.03825 81.970108 -1.598363
21.095387 82.062485 -1.7942621
21.011406 82.161423 -1.687039
21.145538 82.048935 -1.6151789
21.018974 82.245895 -1.647355
21.055344 82.184616 -1.717239
21.153137 82.097336 -1.635963
20.910477 82.223434 -1.642194
21.083511 82.118912 -1.639243
21.120255 82.123123 -1.68621
20.915916 82.08696 -1.672698
21.126312 82.219345 -1.576385
21.135811 82.269943 -1.598937
21.073528 82.026108 -1.582522
20.915077 82.148514 -1.5851769
20.969902 82.109085 -1.584058
20.886566 82.06221 -1.571692
21.175034 82.228867 -1.599195
20.987278 82.290665 -1.580796
21.05677 82.254837 -1.5785919
21.027996 82.072311 -1.582585
21.308609 82.008835 -1.633164
21.348927 81.988602 -1.632194
21.23909 81.973648 -1.614174
21.212803 81.966812 -1.669451
21.198399 82.016281 -1.613892
21.292122 81.941422 -1.612884
21.429688 81.948593 -1.630246
21.417183 82.004166 -1.5712301
21.465012 81.964127 -1.569261
21.180733 81.946457 -1.580628
21.260311 82.020462 -1.635716
21.232521 82.18837 -1.614753
21.224785 82.133499 -1.64232
21.379536 82.282974 -1.6803581
21.324528 82.190231 -1.671203
21.333534 82.303818 -1.680927
21.431141 82.127182 -1.621057
21.462303 82.270157 -1.582253
21.450909 82.15419 -1.5979919
21.400841 82.180069 -1.599465
21.274849 82.280075 -1.60041
21.42749 82.072372 -1.593197
21.309792 82.240433 -1.601105
21.47036 82.034958 -1.593044
21.306305 82.093674 -1.572706
21.186211 82.17717 -1.575161
21.24799 82.215988 -1.5950119
21.252659 82.139969 -1.573277
21.363289 82.049973 -1.571805
21.375652 82.102188 -1.5945621
21.350822 82.206192 -1.600935
21.416336 82.318771 -1.582276
21.222034 82.304184 -1.602307
21.614021 82.008499 -1.674613
21.690495 81.929428 -1.585939
21.512745 81.914047 -1.569337
21.638386 81.958054 -1.5873131
21.687328 82.014572 -1.592762
21.745617 81.903671 -1.584157
21.788082 81.965652 -1.589787
21.534332 82.016037 -1.590057
21.577362 81.97905 -1.589901
21.734787 81.987289 -1.59171
21.675552 82.2556 -1.791846
21.699638 82.169785 -1.6725219
21.5961 82.221817 -1.672356
21.571663 82.302963 -1.713485
21.517635 82.161911 -1.655583
21.538345 82.10112 -1.740976
21.630066 82.273178 -1.7280509
21.743427 82.076126 -1.652583
21.764843 82.176468 -1.827437
21.652245 82.187149 -1.673458
21.754196 82.298752 -1.60694
21.7715 82.231003 -1.567161
21.782284 82.024582 -1.5753421
21.666874 82.102371 -1.577812
21.548645 82.178818 -1.580619
21.589653 82.067123 -1.595294
21.729267 82.067001 -1.576063
21.554104 82.105789 -1.594606
21.727413 82.2845 -1.566756
21.505611 82.229385 -1.580303
21.607716 82.140457 -1.579216
21.998829 81.982376 -1.649969
21.94059 82.007614 -1.6497819
22.06776 81.978653 -1.6458
21.87751 81.906601 -1.588541
