# .PCD v0.7 - Point Cloud Data file format
VERSION 0.7
FIELDS x y z
SIZE 4 4 4
TYPE F F F
COUNT 1 1 1
WIDTH 1564
HEIGHT 1
VIEWPOINT 0 0 0 1 0 0 0
POINTS 1564
DATA ascii
-1.181362 72.191452 -1.755753
-1.251187 72.022202 -1.72194
-1.2385679 71.938553 -1.755924
-1.156592 71.995865 -1.825611
-1.373608 71.950912 -1.731068
-1.412722 72.007187 -1.728277
-1.4160661 72.095413 -1.842948
-1.3885061 72.066971 -1.846513
-1.1604871 72.197769 -1.722803
-1.392481 72.156235 -1.745164
-1.1522681 72.517349 -1.792688
-1.393448 72.385086 -1.744917
-1.186959 72.455185 -1.7362109
-1.149483 72.399796 -1.738994
-1.434651 72.279831 -1.812161
-1.389164 72.50148 -1.737957
-1.3107671 72.48793 -1.8192509
-1.170918 72.343246 -1.839571
-1.307803 72.416824 -1.7428859
-1.187228 72.287857 -1.75071
-1.435015 72.538162 -1.736336
-1.433859 72.426041 -1.742489
-1.2687 72.266068 -1.751768
-1.233775 72.323807 -1.749089
-1.237959 72.370316 -1.793592
-1.2242171 72.510696 -1.733429
-1.358139 72.338303 -1.7482131
-1.3426141 72.393539 -1.780004
-1.359301 72.447342 -1.74211
-1.349957 72.493301 -1.779363
-1.232811 72.611099 -1.9662091
-2.041445 72.812271 -1.959499
-1.68104 73.04985 -1.927283
-2.1651139 72.612808 -1.848796
-2.1883609 72.683762 -1.703817
-2.1845729 72.546249 -1.694742
-2.3339391 72.769821 -1.684881
-2.1094401 72.59697 -1.70873
-2.0877061 72.675064 -1.704255
-2.070353 72.771927 -1.7342449
-2.0706661 72.846054 -1.7331131
-2.11221 72.772293 -1.788584
-2.141489 72.705826 -1.703789
-2.1698079 72.7621 -1.699682
-2.358475 72.573929 -1.787588
-2.2569661 72.844131 -1.695919
-2.214869 72.801651 -1.698002
-2.2508299 72.665848 -1.688742
-2.2178271 72.606003 -1.69174
-2.252516 72.550034 -1.794886
-2.1462159 72.643143 -1.705857
-2.3046989 72.546524 -1.824311
-2.2656119 72.638901 -1.714502
-2.2984049 72.712418 -1.687519
-2.2750249 72.762558 -1.700151
-2.3562701 72.651505 -1.762102
-2.2646871 72.968552 -1.762275
-2.2860489 73.033157 -1.761928
-2.2960551 72.889572 -1.693433
-2.216198 73.033676 -1.879288
-2.0997779 73.138901 -1.701708
-2.195502 73.112198 -1.6783299
-2.068541 72.994125 -1.731407
-2.1027379 72.926773 -1.688061
-2.17891 73.038193 -1.683213
-2.200129 72.969437 -1.784791
-2.2311709 73.096115 -1.776198
-2.3003099 73.100449 -1.762786
-2.1422751 72.868484 -1.80777
-2.1409271 72.982437 -1.685637
-2.146452 73.12883 -1.800053
-2.1471641 73.080276 -1.770817
-2.059222 73.098587 -1.703702
-2.058522 72.944382 -1.733461
-2.3492839 72.92128 -1.69296
-2.335701 72.977432 -1.697728
-2.3272991 73.138748 -1.760553
-1.787571 72.578995 -1.8115259
-2.0561931 72.621811 -1.707962
-2.0222499 72.677963 -1.739498
-2.0291541 72.726944 -1.7379349
-1.7734571 72.696793 -1.719937
-1.8033659 72.757919 -1.716547
-1.774142 72.817642 -1.718082
-2.0105441 72.58287 -1.709643
-2.0068691 72.700882 -1.868431
-1.963133 72.781784 -1.692508
-2.0108211 72.829056 -1.6911449
-1.948355 72.5728 -1.860316
-1.9137599 72.648605 -1.802689
-1.936005 72.716019 -1.696348
-1.913344 72.845963 -1.790779
-1.811869 72.556686 -1.702917
-1.8455991 72.616837 -1.6997809
-1.861275 72.741623 -1.793291
-1.8896281 72.555435 -1.862872
-1.887942 72.669022 -1.697711
-1.884951 72.782333 -1.791808
-1.910351 72.611465 -1.803449
-1.8359489 72.816422 -1.713527
-1.910872 73.056015 -1.70726
-1.87167 73.145004 -1.8150899
-1.828022 72.973587 -1.711333
-1.846053 72.907852 -1.712386
-1.884508 72.950272 -1.709967
-1.882973 72.861526 -1.7123491
-1.928528 73.147018 -1.813004
-1.94924 73.100235 -1.70481
-1.948843 73.007034 -1.707407
-1.947033 72.951035 -1.789299
-1.987452 73.144608 -1.70236
-1.9960459 73.094345 -1.7410131
-1.990525 72.892136 -1.744626
-1.783367 73.10524 -1.797779
-1.780785 72.938248 -1.712536
-2.011301 73.00856 -1.70735
-2.0493951 72.884445 -1.6887209
-1.817881 73.046738 -1.810482
-1.814806 73.142685 -1.796079
-2.1317141 73.187729 -1.69844
-2.1530459 73.309494 -1.694638
-2.1353691 73.358932 -1.775448
-2.166281 73.233841 -1.6956
-2.359906 73.257767 -1.711578
-2.338057 73.341568 -1.6679569
-2.0748279 73.22261 -1.699119
-2.1010799 73.278366 -1.69502
-2.3142631 73.40834 -1.6859421
-2.2689061 73.372787 -1.687088
-2.3103831 73.277695 -1.671424
-2.2560921 73.453018 -1.686074
-2.2230861 73.393661 -1.775124
-2.2733099 73.221542 -1.673843
-2.2405951 73.320847 -1.690769
-2.2045081 73.421402 -1.686457
-2.2035241 73.277298 -1.693184
-2.2027881 73.358444 -1.690102
-2.242094 73.160355 -1.676964
-2.16903 73.73204 -1.764553
-2.168278 73.662888 -1.7877409
-2.2017119 73.584152 -1.7548749
-2.3511281 73.730698 -1.705157
-2.3461061 73.680618 -1.706552
-2.195034 73.479385 -1.780313
-2.3109 73.583054 -1.766225
-2.0661659 73.675613 -1.6395611
-2.0595019 73.536789 -1.727204
-2.1299419 73.760483 -1.796216
-2.3574531 73.597427 -1.677531
-2.3393021 73.463211 -1.681844
-2.1500001 73.665512 -1.775694
-2.1091809 73.54158 -1.785333
-2.283968 73.459335 -1.686685
-2.281296 73.50914 -1.6819921
-2.0919361 73.463028 -1.7654001
-2.1434579 73.557755 -1.781563
-2.24384 73.700912 -1.769755
-2.1190569 73.494034 -1.762605
-2.3101311 73.728531 -1.765106
-2.2896979 73.665085 -1.749091
-2.044533 73.339249 -1.730956
-1.989769 73.446396 -1.73787
-1.972042 73.39534 -1.740831
-1.986159 73.345627 -1.7393939
-1.985916 73.270096 -1.740263
-1.993939 73.194992 -1.740034
-2.0539291 73.240616 -1.730608
-2.031203 73.183517 -1.70074
-1.85525 73.196945 -1.790741
-1.822993 73.383224 -1.6930799
-1.820734 73.426773 -1.798629
-2.0361331 73.388596 -1.731686
-1.792292 73.163773 -1.793602
-1.789296 73.237045 -1.779634
-1.79224 73.323471 -1.696209
-1.765623 73.392502 -1.804059
-1.868632 73.430038 -1.691767
-2.0451839 73.289871 -1.731339
-1.899767 73.322586 -1.773742
-1.902706 73.257645 -1.79215
-1.929648 73.415939 -1.798432
-1.9179389 73.230545 -1.787876
-1.9275399 73.29808 -1.7916189
-1.807043 73.760544 -1.694934
-2.0330601 73.717514 -1.677961
-1.914294 73.724503 -1.78232
-1.771204 73.704575 -1.6973161
-1.989992 73.697739 -1.735718
-1.798251 73.635574 -1.790146
-1.7973371 73.557266 -1.7945631
-1.780268 73.481125 -1.785174
-2.009819 73.652237 -1.681803
-1.9729691 73.562607 -1.653372
-1.8570499 73.725388 -1.6569051
-1.85005 73.56813 -1.792643
-2.0561359 73.635513 -1.726998
-2.055752 73.586166 -1.727379
-1.952042 73.474106 -1.793364
-1.9411761 73.539658 -1.686964
-1.925818 73.611588 -1.7771831
-2.0515411 73.487442 -1.728698
-1.823994 73.512955 -1.782025
-1.9918391 73.49678 -1.7371089
-1.905012 73.484818 -1.689365
-1.903679 73.551834 -1.779817
-1.8651969 73.657547 -1.659165
-1.880715 73.71077 -1.782483
-1.4608541 72.729324 -1.817217
-1.5834301 72.643967 -1.768038
-1.735188 72.77562 -1.720504
-1.7298419 72.704147 -1.880901
-1.7432849 72.635696 -1.723333
-1.592526 72.71254 -1.726069
-1.483469 72.572128 -1.735135
-1.4758 72.69133 -1.816213
-1.657519 72.843735 -1.834779
-1.629425 72.758591 -1.723192
-1.656817 72.691879 -1.725348
-1.620098 72.647293 -1.728201
-1.562218 72.764938 -1.807902
-1.582058 72.816422 -1.765716
-1.692616 72.593857 -1.7241499
-1.6988029 72.730789 -1.7233551
-1.6661381 72.804764 -1.7203161
-1.556839 72.546707 -1.735638
-1.560923 72.660812 -1.7297879
-1.538729 72.723801 -1.814711
-1.521574 72.807053 -1.813779
-1.593951 72.59111 -1.73278
-1.494555 72.773453 -1.865869
-1.463532 72.826889 -1.71933
-1.548243 73.058456 -1.792165
-1.555346 73.009323 -1.709177
-1.620077 73.014023 -1.760389
-1.637925 73.062943 -1.757934
-1.6341 73.114426 -1.7047319
-1.484606 72.896622 -1.714722
-1.489535 72.999771 -1.797772
-1.511402 73.042923 -1.792354
-1.525975 72.947556 -1.7126811
-1.5593359 72.882431 -1.861596
-1.684288 73.09993 -1.799984
-1.591305 72.865921 -1.764384
-1.700482 72.987015 -1.801149
-1.69434 72.859573 -1.716189
-1.592808 72.915604 -1.764177
-1.611075 72.969315 -1.824013
-1.646162 72.895706 -1.883584
-1.6182311 72.964432 -1.760596
-1.58741 73.068466 -1.706041
-1.741812 72.894577 -1.714988
-1.45201 73.086472 -1.769304
-1.73156 73.024857 -1.799443
-1.452107 73.036606 -1.7687809
-1.448431 72.987015 -1.768822
-1.15942 72.566177 -1.792446
-1.422629 72.839188 -1.771197
-1.412968 72.784286 -1.7202719
-1.4122339 72.656326 -1.820544
-1.155793 72.745071 -1.740904
-1.395897 72.641159 -1.77361
-1.334246 72.797562 -1.786976
-1.2500859 72.688278 -1.837641
-1.28348 72.763565 -1.86666
-1.307385 72.703781 -1.7890919
-1.320734 72.750717 -1.788034
-1.295168 72.624771 -1.727501
-1.264122 72.563553 -1.731017
-1.167977 72.542038 -1.873659
-1.1685359 72.639633 -1.792367
-1.192377 72.801987 -1.738176
-1.359825 72.542892 -1.7781971
-1.2161109 72.56514 -1.831288
-1.363415 72.841141 -1.783612
-1.407782 72.790207 -1.772928
-1.349123 72.664169 -1.72693
-1.382628 72.722824 -1.723783
-1.348284 73.019882 -1.728711
-1.180943 73.144943 -1.784115
-1.189255 73.065567 -1.711387
-1.391234 72.929855 -1.802915
-1.383767 73.077286 -1.725978
-1.294813 73.042801 -1.782014
-1.279936 73.123032 -1.741973
-1.20406 73.017593 -1.746783
-1.204924 72.856461 -1.82409
-1.273699 72.908035 -1.733811
-1.234604 72.853592 -1.736177
-1.2493629 72.901047 -1.785603
-1.238606 73.004318 -1.876045
-1.245026 73.067551 -1.744756
-1.223786 73.119308 -1.708751
-1.354002 72.914932 -1.803102
-1.309622 72.965225 -1.7310801
-1.157082 72.97319 -1.748051
-1.419012 73.134781 -1.723245
-1.444926 72.937424 -1.768862
-1.67467 73.165848 -1.702692
-1.662464 73.309799 -1.7552119
-1.535094 73.203415 -1.818916
-1.721041 73.212143 -1.701381
-1.737862 73.15593 -1.7923419
-1.520382 73.310471 -1.714679
-1.572808 73.306625 -1.799311
-1.546398 73.40065 -1.642477
-1.743246 73.279556 -1.697157
-1.718605 73.388809 -1.803262
-1.603949 73.413315 -1.711012
-1.457032 73.189774 -1.720873
-1.457104 73.3965 -1.72883
-1.7363549 73.449509 -1.788322
-1.615347 73.273453 -1.849424
-1.648968 73.211288 -1.7567509
-1.58527 73.160751 -1.820011
-1.562453 73.237137 -1.812366
-1.650387 73.161606 -1.7563961
-1.487849 73.183212 -1.765278
-1.494833 73.244827 -1.7185
-1.616295 73.351242 -1.795356
-1.676644 73.408127 -1.753674
-1.493685 73.449905 -1.726431
-1.672139 73.458084 -1.75459
-1.671542 73.529556 -1.7055351
-1.698881 73.592941 -1.702076
-1.691063 73.709671 -1.779196
-1.472554 73.681747 -1.799541
-1.5025311 73.600143 -1.765931
-1.492192 73.552383 -1.687767
-1.615895 73.617783 -1.753068
-1.6304131 73.527145 -1.798574
-1.4476891 73.76442 -1.760085
-1.631785 73.476547 -1.707553
-1.551224 73.73912 -1.762902
-1.631907 73.669754 -1.716089
-1.636227 73.757919 -1.6792279
-1.7395231 73.75032 -1.747167
-1.7272151 73.701828 -1.748498
-1.738211 73.646164 -1.700056
-1.71889 73.603378 -1.748913
-1.7253881 73.534348 -1.798842
-1.598261 73.708328 -1.681077
-1.456436 73.500595 -1.690002
-1.5631011 73.656235 -1.683305
-1.608252 73.605576 -1.719985
-1.517319 73.646835 -1.765111
-1.575278 73.54921 -1.722759
-1.605788 73.486191 -1.73636
-1.533717 73.598984 -1.686288
-1.53307 73.500809 -1.724407
-1.443333 73.276962 -1.80361
-1.423287 73.340561 -1.731608
-1.159344 73.221817 -1.8134381
-1.426392 73.443588 -1.692995
-1.311671 73.18129 -1.738814
-1.192507 73.193619 -1.78342
-1.186579 73.257584 -1.809963
-1.166375 73.304794 -1.681132
-1.352036 73.231583 -1.736789
-1.3172801 73.289139 -1.699723
-1.196816 73.363419 -1.8096991
-1.161652 73.430801 -1.780425
-1.37817 73.160812 -1.809327
-1.2863539 73.232468 -1.702728
-1.308974 73.378159 -1.800392
-1.395188 73.279373 -1.73514
-1.353848 73.34053 -1.6974781
-1.3419631 73.404404 -1.798772
-1.256752 73.435562 -1.779379
-1.374525 73.327438 -1.777109
-1.3872761 73.394699 -1.694857
-1.2443531 73.387161 -1.780074
-1.2200511 73.290207 -1.781466
-1.246456 73.184006 -1.704599
-1.2976381 73.529343 -1.775738
-1.3049001 73.59819 -1.769994
-1.284912 73.481125 -1.7764339
-1.381623 73.610611 -1.825402
-1.387291 73.517746 -1.798012
-1.4162771 73.646805 -1.803964
-1.220652 73.725723 -1.7406
-1.289009 73.749313 -1.799178
-1.228804 73.501236 -1.776431
-1.348547 73.658401 -1.765818
-1.318312 73.576065 -1.773918
-1.355111 73.492874 -1.799745
-1.150809 73.728226 -1.707963
-1.208546 73.539169 -1.79983
-1.182053 73.675919 -1.7426
-1.2099349 73.732895 -1.771808
-1.4364361 73.553574 -1.795733
-1.2558039 73.544205 -1.773121
-1.146242 73.623581 -1.744989
-1.382592 73.692642 -1.764082
-0.39773399 72.336777 -1.921322
-0.86004299 72.498001 -1.940733
-1.006979 71.506149 -1.770245
-0.97749197 71.44191 -1.777371
-1.040476 71.3694 -1.771055
-1.089371 71.396622 -1.783766
-1.081251 71.496109 -1.775802
-0.96382701 71.393417 -1.808417
-0.96579999 71.32634 -1.78564
-1.124468 71.53447 -1.773477
-0.95370698 71.514542 -1.771821
-0.92217302 71.368698 -1.83284
-0.91651797 71.56105 -1.804078
-0.912121 71.614334 -1.768106
-0.87933201 71.510544 -1.769308
-1.082503 71.571609 -1.749181
-0.89589298 71.461349 -1.773054
-0.87107497 71.391708 -1.778486
-1.0354331 71.42601 -1.769623
-1.02536 71.53801 -1.800284
-1.13782 71.447037 -1.78062
-1.039133 71.600082 -1.766381
-1.050352 71.83342 -1.798884
-1.022171 71.689133 -1.7668149
-1.043299 71.883774 -1.800364
-0.847103 71.858078 -1.837956
-0.85210299 71.779251 -1.800961
-1.116248 71.759323 -1.757758
-1.097697 71.871628 -1.756392
-1.0991499 71.813614 -1.75807
-1.080984 71.92601 -1.7567019
-1.0647399 71.739914 -1.764483
-1.000071 71.899307 -1.835591
-0.91082197 71.637802 -1.832322
-0.87300903 71.732956 -1.891808
-0.86912799 71.82991 -1.7986439
-0.86652601 71.881027 -1.7991
-0.91744101 71.918991 -1.767288
-0.932383 71.864548 -1.767215
-0.93973798 71.808548 -1.7681479
-0.95505702 71.754227 -1.768073
-0.94629502 71.686508 -1.894538
-1.003933 71.818863 -1.851805
-0.96280301 71.698288 -1.769004
-0.973984 71.644333 -1.768398
-1.120379 71.629929 -1.746024
-0.70697403 71.371384 -1.69859
-0.66853398 71.479782 -1.705646
-0.71128702 71.624466 -1.879764
-0.57368499 71.374039 -1.651952
-0.63205397 71.577377 -1.840385
-0.65156603 71.533829 -1.708903
-0.63780999 71.470322 -1.785748
-0.54218102 71.4254 -1.655194
-0.533732 71.528946 -1.732322
-0.79840899 71.601273 -1.809579
-0.79451197 71.346634 -1.749408
-0.58161402 71.32106 -1.651682
-0.81507701 71.494522 -1.768461
-0.81335098 71.543442 -1.8718899
-0.71932799 71.440659 -1.743109
-0.72392702 71.534592 -1.74793
-0.82016999 71.363754 -1.77948
-0.82300401 71.45256 -1.770879
-0.67997801 71.5728 -1.740785
-0.54691201 71.596786 -1.59171
-0.65929598 71.36293 -1.589514
-0.62442398 71.418655 -1.59076
-0.60456097 71.480362 -1.5904109
-0.57378 71.537796 -1.59126
-0.64523298 71.706772 -1.7380511
-0.61468297 71.797379 -1.773854
-0.65523601 71.63649 -1.740237
-0.57669699 71.678329 -1.686525
-0.66472501 71.826401 -1.772761
-0.59917098 71.760788 -1.73996
-0.66267997 71.910019 -1.767599
-0.57874501 71.826309 -1.7390029
-0.831227 71.703354 -1.804955
-0.72185701 71.667984 -1.869342
-0.76706201 71.881912 -1.771006
-0.78123897 71.79921 -1.857901
-0.617329 71.873093 -1.7696331
-0.80072403 71.728226 -1.899051
-0.71716899 71.852493 -1.772105
-0.55127001 71.888687 -1.738865
-0.82187498 71.905319 -1.770784
-0.75049198 71.796768 -1.900779
-0.71164697 71.727737 -1.907069
-0.963292 72.004532 -1.766142
-0.889889 72.178268 -1.860121
-0.886473 72.103622 -1.7512521
-0.88811898 72.028091 -1.767432
-0.906582 71.974258 -1.766858
-1.093783 72.216476 -1.753948
-0.915999 72.193527 -1.7355959
-0.92102301 72.057663 -1.762972
-0.91373301 71.97435 -1.767252
-1.08582 72.126572 -1.758425
-0.84164298 72.191513 -1.768144
-1.113484 72.093094 -1.828727
-0.85564601 72.136734 -1.768075
-1.067492 72.039352 -1.754836
-1.068331 71.981369 -1.756514
-0.98757201 72.151657 -1.730708
-1.005047 72.085159 -1.731994
-0.84200698 72.054764 -1.753293
-1.053633 71.931137 -1.8331341
-1.0281889 71.995499 -1.836676
-1.035406 72.148483 -1.7554539
-1.055233 72.094742 -1.754648
-1.053925 72.241714 -1.848588
-1.054055 72.308914 -1.741971
-1.049603 72.365097 -1.7261879
-1.060707 72.441544 -1.858411
-1.047858 72.502579 -1.8381619
-1.010342 72.259506 -1.744013
-0.98480302 72.311935 -1.756874
-0.96571201 72.366074 -1.757678
-1.122961 72.324783 -1.720853
-1.137959 72.259689 -1.722248
-1.009329 72.419662 -1.7277369
-0.976574 72.477493 -1.728444
-0.90294302 72.433517 -1.753581
-0.84578001 72.310867 -1.737142
-0.94093502 72.281784 -1.836041
-1.10611 72.350082 -1.741038
-0.922728 72.365616 -1.866395
-0.95459402 72.421799 -1.757488
-0.955136 72.475906 -1.752696
-0.92540199 72.531784 -1.8896641
-0.880795 72.252121 -1.736369
-0.87342697 72.369064 -1.7574019
-1.109009 72.449112 -1.8545541
-0.64950198 72.216141 -1.860792
-0.62103498 72.161331 -1.842937
-0.77848101 71.953812 -1.767813
-0.79181099 72.011765 -1.754589
-0.64859402 72.043808 -1.8613679
-0.72058898 71.931808 -1.767709
-0.72216302 71.989059 -1.753274
-0.71599799 72.053238 -1.775782
-0.75534302 72.108963 -1.773064
-0.75496501 72.204147 -1.765185
-0.54946399 72.175278 -1.861817
-0.68595201 72.160843 -1.845539
-0.780222 72.071671 -1.803447
-0.777466 72.122818 -1.804505
-0.83122098 71.982162 -1.7670569
-0.54853898 72.125717 -1.8461111
-0.71051103 71.994827 -1.897832
-0.77100599 72.174759 -1.806126
-0.65526599 71.963791 -1.752326
-0.60940802 72.065781 -1.769632
-0.598988 72.202225 -1.8571351
-0.61035597 72.125076 -1.888826
-0.78806001 72.265549 -1.7617331
-0.62841398 72.531937 -1.789508
-0.75349802 72.523361 -1.73482
-0.74699599 72.471207 -1.769823
-0.753483 72.343307 -1.905811
-0.594899 72.495193 -1.79231
-0.67879897 72.293564 -1.878576
-0.67445397 72.360458 -1.775787
-0.82001001 72.24498 -1.7692159
-0.70943499 72.417191 -1.772612
-0.82373297 72.449478 -1.733341
-0.75897998 72.284439 -1.8784291
-0.54559898 72.368759 -1.8517801
-0.54802901 72.478348 -1.791922
-0.70822603 72.479477 -1.736333
-0.78207201 72.505325 -1.734939
-0.792799 72.415085 -1.848227
-0.60896099 72.400833 -1.738207
-0.58436197 72.267227 -1.779451
-0.58520001 72.334396 -1.742802
-0.65658998 72.268356 -1.897596
-0.79640198 72.363297 -1.739563
-0.65595502 72.369858 -1.853815
-0.66003299 72.438644 -1.737463
-0.48430499 71.43602 -1.727726
-0.43502101 71.58049 -1.718309
-0.44378701 71.521378 -1.649212
-0.42416599 71.436356 -1.644545
-0.35578799 71.594345 -1.652338
-0.26569 71.618118 -1.706311
-0.40251401 71.488907 -1.646978
-0.385104 71.596878 -1.714463
-0.51877201 71.477524 -1.657445
-0.256825 71.504196 -1.616292
-0.229386 71.421402 -1.650308
-0.242716 71.356247 -1.6471241
-0.49950299 71.530014 -1.659199
-0.472487 71.582169 -1.661943
-0.278422 71.440598 -1.6169209
-0.35799399 71.319412 -1.601652
-0.355849 71.412766 -1.5591871
-0.317393 71.468216 -1.560787
-0.25963801 71.586716 -1.562054
-0.398186 71.358932 -1.5572
-0.29399899 71.529526 -1.5608391
-0.23378 71.902603 -1.771011
-0.44653201 71.871445 -1.638442
-0.52359003 71.769211 -1.685557
-0.246893 71.746475 -1.667384
-0.44674 71.688431 -1.663962
-0.30818799 71.807632 -1.657606
-0.47422099 71.62886 -1.771847
-0.48561901 71.821335 -1.643002
-0.50788498 71.872238 -1.734876
-0.322541 71.862961 -1.734122
-0.32963201 71.70079 -1.65522
-0.402125 71.831528 -1.740061
-0.38270399 71.766495 -1.72403
-0.39118201 71.684982 -1.734287
-0.32080299 71.754196 -1.656166
-0.41527 71.824234 -1.596312
-0.38937399 71.883865 -1.596766
-0.232926 71.646835 -1.562494
-0.45256799 71.768875 -1.594662
-0.520239 71.655869 -1.592162
-0.490042 71.713699 -1.593012
-0.185892 71.378891 -1.640012
0.015052 71.371231 -1.635427
-0.17152099 71.432144 -1.641856
0.041374002 71.523392 -1.652124
-0.064364001 71.604111 -1.622772
-0.151875 71.600632 -1.626555
-0.138522 71.539383 -1.635295
-0.12712499 71.490128 -1.642138
-0.210215 71.516739 -1.64062
-0.090630002 71.511002 -1.582947
-0.101067 71.451309 -1.583573
-0.078006998 71.325699 -1.587337
-0.111716 71.391617 -1.584198
-0.053318001 71.564285 -1.585315
0.046886001 71.604385 -1.592014
-0.012629 71.494675 -1.5890189
-0.036823999 71.438797 -1.5881701
0.0035950001 71.552292 -1.588999
0.072913997 71.424973 -1.594117
0.065475002 71.330399 -1.592059
-0.027790001 71.620529 -1.586399
-0.15728401 71.340714 -1.580972
-0.045667998 71.379623 -1.589056
-0.037517998 71.923019 -1.619665
-0.057619002 71.858719 -1.620296
-0.01257 71.768997 -1.645936
-0.023602 71.714798 -1.644575
-0.220936 71.853592 -1.65637
-0.177367 71.876236 -1.654054
0.0096720001 71.851517 -1.647704
0.0083290003 71.906052 -1.638806
-0.118344 71.699326 -1.649091
-0.12819301 71.741867 -1.618444
-0.092809997 71.800217 -1.61937
0.069494002 71.715744 -1.654322
-0.063979 71.686478 -1.696003
-0.135741 71.645401 -1.646755
0.059310999 71.787338 -1.590929
-0.113129 71.883041 -1.565812
-0.157767 71.829178 -1.5634331
-0.210154 71.70845 -1.562548
-0.17263401 71.764664 -1.564152
0.062732004 71.662247 -1.5919909
0.078902997 71.876358 -1.590627
0.013052 71.673294 -1.589192
0.030455999 71.731583 -1.58942
-0.269667 72.228134 -1.641019
-0.30736199 72.171585 -1.639657
-0.48600399 72.008987 -1.739816
-0.46648601 72.074814 -1.7388591
-0.34402299 72.172562 -1.812551
-0.34523001 72.115219 -1.638294
-0.499033 72.152359 -1.865738
-0.471569 72.197617 -1.780032
-0.39174101 71.991714 -1.638769
-0.37582999 72.056229 -1.637731
-0.49841499 71.932816 -1.866702
-0.28750601 71.984512 -1.733632
-0.42646301 71.934402 -1.637805
-0.450367 72.026382 -1.743275
-0.42887899 72.132919 -1.739949
-0.52347398 72.0298 -1.746507
-0.52766103 71.952744 -1.738317
-0.23204599 72.076065 -1.666784
-0.229067 72.17186 -1.602636
-0.352442 71.93956 -1.598418
-0.31568 71.995438 -1.60007
-0.301642 72.059372 -1.599328
-0.26902801 72.116806 -1.600582
-0.417115 72.237076 -1.743109
-0.42326999 72.448685 -1.886322
-0.47893599 72.337997 -1.856437
-0.39944699 72.465103 -1.826628
-0.50987798 72.448471 -1.793659
-0.490565 72.541214 -1.824472
-0.243388 72.288925 -1.641181
-0.42458001 72.402359 -1.794998
-0.43036899 72.307541 -1.861437
-0.468685 72.274124 -1.742366
-0.44108599 72.507523 -1.824906
-0.36525801 72.254227 -1.7409
-0.51833898 72.242355 -1.778397
-0.52287102 72.308487 -1.742007
-0.32824501 72.247147 -1.801919
-0.35400599 72.32338 -1.739125
-0.33584201 72.386917 -1.750675
-0.35631999 72.53511 -1.852348
-0.30261499 72.322586 -1.745901
-0.29536101 72.446823 -1.7396671
-0.26265401 72.507217 -1.740347
0.070022002 72.098434 -1.622828
0.043081 72.036575 -1.622681
0.055096999 71.975784 -1.638182
-0.077416003 72.021378 -1.655684
-0.0050240001 72.227707 -1.6606981
-0.102066 72.079483 -1.670838
-0.1745 72.167465 -1.726981
0.056281999 72.169113 -1.660823
-0.119944 72.186356 -1.669042
-0.126818 72.136826 -1.665563
-0.14794201 72.077225 -1.664521
-0.053417999 72.130112 -1.659361
-0.045722999 72.216171 -1.659644
0.0047320002 71.978989 -1.6213681
-0.146448 72.02449 -1.66427
-0.20435899 72.232193 -1.603093
-0.004034 72.123856 -1.568365
-0.029123999 72.06282 -1.56792
-0.054414999 72.001907 -1.567475
0.024614001 72.183731 -1.569199
-0.091182999 71.945053 -1.565869
-0.221062 72.351151 -1.640942
0.012756 72.296646 -1.668826
-0.005345 72.521225 -1.687093
-0.21349899 72.480026 -1.715821
0.081632003 72.510269 -1.667586
0.061303999 72.46315 -1.676309
-0.136582 72.531784 -1.642225
-0.018538 72.509201 -1.64733
-0.187695 72.40947 -1.641904
-0.165791 72.471878 -1.641665
-0.042718999 72.408981 -1.6810811
-0.031819001 72.338211 -1.748206
0.046640001 72.407639 -1.67398
0.063591003 72.352737 -1.750366
-0.098361999 72.241989 -1.672305
-0.127077 72.303238 -1.711267
-0.076335996 72.532944 -1.606187
-0.103808 72.473282 -1.605327
-0.063686997 72.352829 -1.677822
-0.076982997 72.297836 -1.675567
0.064398997 72.239944 -1.571195
-0.15934201 72.354416 -1.60361
-0.14282501 72.417496 -1.6032701
-0.179858 72.292618 -1.603551
-0.436039 73.271317 -1.9899549
-0.47847599 72.841324 -1.949191
-0.206028 72.751022 -1.95147
-0.183827 73.494675 -1.9647191
-0.67881399 73.427628 -1.971552
-0.37442201 73.393845 -1.989222
-1.113169 72.693741 -1.7429
-1.043089 72.65892 -1.79557
-1.033131 72.585953 -1.747618
-1.104691 72.802658 -1.788983
-0.84441602 72.728378 -1.776935
-0.85909897 72.802353 -1.835144
-0.98080301 72.550552 -1.724946
-0.96298599 72.712265 -1.76008
-1.002207 72.764236 -1.757674
-0.99065101 72.820572 -1.721558
-1.090546 72.754044 -1.790241
-1.079052 72.634323 -1.745991
-1.078923 72.562759 -1.876166
-0.88962799 72.603165 -1.765658
-0.86871898 72.675644 -1.7276061
-0.90483898 72.7285 -1.724951
-0.94924599 72.773087 -1.7234451
-0.93111497 72.672562 -1.724679
-0.87857902 72.793472 -1.7248321
-0.884381 73.043564 -1.750414
-0.89724803 72.988205 -1.750111
-0.89464003 72.930313 -1.751793
-0.900069 72.873703 -1.7524821
-0.85978901 73.149551 -1.795133
-0.98903102 73.147995 -1.793365
-0.85817897 72.856247 -1.724278
-1.019436 73.094803 -1.787387
-1.044884 73.14296 -1.784524
-0.96885097 73.1017 -1.795126
-0.96417701 73.051376 -1.794643
-1.1215709 72.918045 -1.7508349
-1.131472 73.03392 -1.710982
-1.127653 73.105423 -1.819648
-1.000538 72.994644 -1.78868
-0.99528903 72.944077 -1.7887729
-0.99416 72.893143 -1.788313
-0.94087601 72.925888 -1.8976099
-0.93685198 73.00206 -1.83035
-0.948237 73.090988 -1.799901
-1.110939 72.966629 -1.715526
-0.87955302 73.100204 -1.749725
-1.119004 72.851181 -1.787725
-1.065792 73.066879 -1.823956
-1.021714 73.043442 -1.786371
-1.031878 72.86821 -1.719673
-0.683285 72.758194 -1.733929
-0.68747699 72.686386 -1.736444
-0.703942 72.592606 -1.786026
-0.646878 72.721634 -1.816354
-0.80723399 72.697525 -1.778679
-0.78186798 72.584427 -1.731007
-0.82297403 72.571762 -1.804968
-0.823973 72.631393 -1.7291141
-0.56772798 72.632675 -1.820191
-0.60063797 72.684402 -1.817202
-0.60584497 72.73674 -1.869614
-0.61542702 72.653244 -1.846053
-0.61685002 72.804184 -1.73841
-0.72856897 72.630051 -1.734844
-0.74376303 72.690201 -1.76622
-0.71583599 72.800308 -1.766843
-0.60232598 72.944962 -1.734206
-0.83429801 72.917618 -1.7241451
-0.54553598 73.141312 -1.7320189
-0.55929601 73.073868 -1.733296
-0.71985298 72.857895 -1.7648979
-0.57100499 72.865616 -1.778911
-0.53394002 72.962173 -1.739583
-0.76294702 72.857498 -1.8104171
-0.82920098 72.986221 -1.72191
-0.52996701 73.013809 -1.8318
-0.65008801 73.1064 -1.733201
-0.64543599 72.969742 -1.773731
-0.59547299 73.015274 -1.732105
-0.60119498 73.068466 -1.733881
-0.616822 72.877579 -1.735484
-0.71623498 72.935074 -1.829245
-0.69464302 73.082352 -1.762628
-0.71980703 72.996902 -1.803194
-0.74531198 73.095291 -1.7258461
-0.762743 73.119888 -1.766945
-0.768574 73.033615 -1.72598
-0.792126 72.912582 -1.8070281
-0.70833802 72.913345 -1.764958
-0.70095301 72.969315 -1.764516
-0.69375998 73.025345 -1.764073
-0.878847 73.157425 -1.748539
-0.99011803 73.258102 -1.790139
-0.984438 73.337021 -1.8133759
-0.87441999 73.214035 -1.7478499
-0.91944498 73.442429 -1.719032
-0.96126801 73.366226 -1.756549
-0.92134899 73.317245 -1.75855
-0.95197499 73.228256 -1.791342
-0.86626297 73.270096 -1.747656
-0.86616403 73.327286 -1.746469
-0.88316202 73.392502 -1.721274
-1.060877 73.24321 -1.7837861
-1.0421619 73.309341 -1.787279
-1.046894 73.193832 -1.784986
-1.009838 73.407272 -1.755715
-1.138783 73.367111 -1.680925
-1.100464 73.424728 -1.6819201
-0.84386498 73.216965 -1.762943
-1.0814919 73.342819 -1.782496
-1.063238 73.294022 -1.7842489
-1.101668 73.240402 -1.832463
-1.032624 73.380417 -1.810379
-1.0494241 73.456558 -1.7537121
-1.05365 73.553055 -1.680706
-0.955531 73.492447 -1.716792
-0.91582 73.54628 -1.775337
-0.93112999 73.621048 -1.8718621
-0.95393598 73.728867 -1.818594
-1.012265 73.609543 -1.6821001
-1.015328 73.750778 -1.8170201
-0.996746 73.677017 -1.680691
-0.98515201 73.746017 -1.678883
-1.116177 73.566055 -1.748154
-1.1372401 73.48848 -1.777239
-1.001711 73.633957 -1.7708189
-0.87115097 73.726761 -1.7381639
-0.994349 73.539902 -1.714944
-0.85992098 73.554733 -1.742715
-1.069634 73.485703 -1.682114
-1.065567 73.640488 -1.710475
-1.100891 73.690964 -1.708243
-0.85161799 73.677261 -1.764814
-0.86589098 73.669327 -1.739846
-0.86477298 73.612289 -1.741033
-0.87102199 73.499161 -1.742415
-0.80049503 73.171097 -1.764553
-0.79564899 73.306747 -1.723803
-0.76816797 73.361404 -1.804332
-0.78112799 73.440598 -1.778966
-0.72594702 73.438278 -1.714676
-0.74412 73.305313 -1.717882
-0.718104 73.225784 -1.723478
-0.55590701 73.290482 -1.725353
-0.54685998 73.214523 -1.729097
-0.74464101 73.16539 -1.723191
-0.57360101 73.374283 -1.775896
-0.60724902 73.266342 -1.7885
-0.68179399 73.161179 -1.730159
-0.70683098 73.36171 -1.71943
-0.83227199 73.3564 -1.721558
-0.81968302 73.405045 -1.8015341
-0.61498499 73.185349 -1.870496
-0.63174999 73.242996 -1.812376
-0.63834798 73.305954 -1.785763
-0.63045198 73.415726 -1.775269
-0.68158001 73.492203 -1.717064
-0.72756398 73.711502 -1.751186
-0.63394397 73.753342 -1.712333
-0.62101001 73.679733 -1.716246
-0.65003198 73.602859 -1.756117
-0.61547899 73.544815 -1.759132
-0.667431 73.556839 -1.716091
-0.81694102 73.616989 -1.767995
-0.68361902 73.63179 -1.711758
-0.82154101 73.46843 -1.778301
-0.686028 73.704605 -1.750728
-0.673491 73.760056 -1.75128
-0.59220898 73.711014 -1.7779
-0.77059799 73.762161 -1.749269
-0.56869203 73.49733 -1.7606699
-0.58396602 73.581955 -1.7717
-0.76972598 73.54097 -1.908476
-0.73853302 73.633896 -1.798429
-0.751486 73.582413 -1.767555
-0.54478502 73.534286 -1.773675
-0.54133302 73.654617 -1.825361
-0.55605698 73.737259 -1.723017
-0.72555602 73.514725 -1.7718199
-0.41288799 72.55809 -1.851331
-0.45359799 72.714401 -1.786095
-0.29121399 72.682785 -1.7516021
-0.52640897 72.820694 -1.780519
-0.283903 72.581711 -1.748368
-0.232888 72.827225 -1.786585
-0.33578101 72.725174 -1.750124
-0.322079 72.63237 -1.826288
-0.263926 72.749313 -1.8519011
-0.273159 72.807358 -1.860779
-0.38861299 72.828049 -1.821995
-0.38573101 72.762039 -1.749439
-0.23841301 72.636246 -1.750807
-0.40568399 72.672745 -1.787307
-0.36599201 72.622726 -1.7897021
-0.51146698 72.735764 -1.870708
-0.52655399 72.589828 -1.821902
-0.39443401 72.574295 -1.869671
-0.490702 72.690872 -1.90108
-0.49293 72.764694 -1.7837
-0.47841501 72.974533 -1.8345259
-0.49299699 72.916245 -1.74145
-0.46162799 73.0215 -1.817167
-0.46790501 73.073166 -1.817742
-0.466658 73.127701 -1.79633
-0.28379899 73.126724 -1.777277
-0.31792301 72.929184 -1.887518
-0.33893001 72.882584 -1.884585
-0.45744699 72.864731 -1.74411
-0.44581601 72.919205 -1.816564
-0.375595 72.894974 -1.840293
-0.40943199 73.047104 -1.858027
-0.37603 73.116074 -1.723999
-0.28740001 73.024399 -1.727095
-0.308752 72.955185 -1.8059469
-0.33466199 73.067398 -1.725926
-0.297791 72.858017 -1.841392
-0.45554 72.969803 -1.816591
-0.41516101 73.073807 -1.799656
-0.425614 73.139572 -1.788211
-0.233284 72.888382 -1.78562
-0.254244 72.967667 -1.730153
-0.23021901 73.028305 -1.859742
-0.22683901 73.088577 -1.777671
-0.181683 72.829147 -1.749338
0.050574999 72.766891 -1.6116281
-0.165749 72.689316 -1.742386
0.080875002 72.826035 -1.61289
-0.215083 72.571091 -1.744949
0.00655 72.573502 -1.64719
0.031412002 72.637924 -1.64705
0.016283 72.70903 -1.609967
-0.010403 72.768906 -1.645663
0.017812001 72.829483 -1.646222
-0.161705 72.580673 -1.725018
-0.21534599 72.770157 -1.748154
-0.223015 72.701859 -1.749898
-0.045271002 72.591476 -1.607446
-0.025800999 72.653732 -1.6075079
-0.050154001 72.712234 -1.643905
-0.055050001 72.774124 -1.8346061
0.043060001 72.604202 -1.749402
-0.115107 72.594376 -1.641986
-0.117506 72.659958 -1.698346
-0.156157 72.758804 -1.740612
-0.119513 72.83168 -1.7347701
-0.078759998 72.651962 -1.643345
-0.101284 72.737808 -1.820287
-0.100796 72.810898 -1.7473789
-0.126692 73.11525 -1.766328
-0.111777 73.049637 -1.768616
-0.141249 72.956711 -1.748778
-0.054308001 72.939529 -1.743468
-0.030871 72.852371 -1.847561
-0.093033001 72.880997 -1.741971
-0.087292001 72.945541 -1.782926
-0.088243999 73.032516 -1.79335
-0.088096999 73.112381 -1.807682
-0.178625 73.116623 -1.790627
-0.168421 73.036667 -1.743271
-0.055291999 73.141403 -1.7480659
-0.033553001 73.077469 -1.74033
-0.030722 73.003738 -1.74333
-0.200974 72.930557 -1.730558
0.027021 73.128342 -1.74428
0.009079 73.03566 -1.754204
0.0050240001 72.98793 -1.8173209
-0.011397 72.885666 -1.846464
0.053405002 72.887741 -1.647579
0.058044001 73.000229 -1.754827
0.053098001 73.140121 -1.809719
-0.16458499 72.876846 -1.733234
-0.35195601 73.292282 -1.784355
-0.516909 73.347946 -1.726958
-0.52174199 73.449997 -1.762203
-0.31708899 73.186539 -1.7739021
-0.38877901 73.329666 -1.7420861
-0.25404 73.443954 -1.834079
-0.26022801 73.359268 -1.739679
-0.226298 73.30864 -1.742329
-0.307919 73.446793 -1.745405
-0.30243099 73.401566 -1.7382489
-0.27359 73.320572 -1.775052
-0.275547 73.260483 -1.775542
-0.26598001 73.198349 -1.77746
-0.25473401 73.219009 -1.850517
-0.361954 73.235764 -1.7720129
-0.33314201 73.455185 -1.735198
-0.48014501 73.182968 -1.787233
-0.44225001 73.342636 -1.767112
-0.51056498 73.247543 -1.783331
-0.50815398 73.328354 -1.849577
-0.49671799 73.412552 -1.726506
-0.45532101 73.216568 -1.719761
-0.49540201 73.484207 -1.723998
-0.28720099 73.587601 -1.7422481
-0.27419701 73.681778 -1.771168
-0.276739 73.762497 -1.719157
-0.48246601 73.642776 -1.72707
-0.41475099 73.493301 -1.843502
-0.457026 73.542007 -1.725605
-0.441264 73.60817 -1.724743
-0.32697701 73.722153 -1.838689
-0.2256 73.590958 -1.81754
-0.37785801 73.494949 -1.734175
-0.39172199 73.733902 -1.7250791
-0.410469 73.661026 -1.850111
-0.24648499 73.706161 -1.722231
-0.29742801 73.517197 -1.743826
-0.418255 73.671677 -1.724705
-0.411015 73.545975 -1.731535
-0.056444999 73.246719 -1.8027101
-0.043024 73.301804 -1.842049
-0.116862 73.399338 -1.846777
0.070863001 73.380356 -1.7553951
0.043962002 73.296585 -1.741358
0.079030998 73.24379 -1.744036
-0.16707499 73.172745 -1.80505
-0.080153003 73.436356 -1.736045
-0.075354002 73.330276 -1.839789
-0.096014 73.278366 -1.801049
-0.192166 73.258133 -1.7449811
0.031192001 73.199448 -1.742097
-0.0065390002 73.280228 -1.84307
-0.089928001 73.191544 -1.745409
0.0048710001 73.353226 -1.734055
0.032632001 73.438004 -1.766055
-0.141087 73.224716 -1.745196
-0.14549699 73.297836 -1.80141
-0.117823 73.341965 -1.840629
-0.16511799 73.309647 -1.760379
-0.161497 73.370956 -1.760396
-0.045651 73.383194 -1.738728
-0.16200501 73.432968 -1.759951
-0.023573 73.540817 -1.7964129
-0.18171 73.704147 -1.7537071
-0.188177 73.590927 -1.728768
-0.012419 73.489365 -1.763809
-0.056306999 73.589157 -1.793888
-0.034759998 73.737137 -1.729715
0.025219001 73.696793 -1.730494
-0.001219 73.612686 -1.8482929
0.066137001 73.689529 -1.8385971
-0.079994999 73.706375 -1.855664
-0.215996 73.649857 -1.725306
-0.063327998 73.53569 -1.7622859
-0.156111 73.731857 -1.786777
-0.14346901 73.647018 -1.756689
-0.15140601 73.540207 -1.731065
-0.120217 73.484116 -1.734139
0.054494999 73.557449 -1.854985
-0.216673 73.763931 -1.750363
0.051819 73.628433 -1.735142
-0.089890003 73.602951 -1.7578551
0.13050801 68.926346 -1.6328321
0.113012 69.136002 -1.629946
0.196785 68.992722 -1.8104
0.093636997 69.079941 -1.60567
0.185379 68.955643 -1.597183
0.29178199 69.132492 -1.5538909
0.29889101 69.011185 -1.534829
0.139429 69.05629 -1.556977
0.17626899 69.107162 -1.559093
0.234363 68.890579 -1.531987
0.26358801 69.073257 -1.553033
0.246236 69.009567 -1.5533381
0.25950599 68.954178 -1.53267
0.125837 68.987106 -1.556021
0.216961 69.058853 -1.5955811
0.18972699 69.163712 -1.558606
0.17981701 69.324051 -1.822264
0.191131 69.221603 -1.6793261
0.15837599 69.210526 -1.713962
0.24485201 69.209 -1.6326081
0.242433 69.449844 -1.61155
0.23246901 69.434464 -1.640578
0.27652699 69.382614 -1.560547
0.097315997 69.215103 -1.5347151
0.104805 69.283676 -1.53373
0.289022 69.439499 -1.560055
0.252193 69.328384 -1.559739
0.25218001 69.25975 -1.559281
0.126711 69.346024 -1.534264
0.204439 69.375198 -1.583941
0.231556 69.273392 -1.5593621
0.152071 69.406937 -1.535179
0.166168 69.472458 -1.534958
0.134767 69.532883 -1.668409
0.107931 69.721329 -1.667906
0.24733099 69.514847 -1.633725
0.29495999 69.746964 -1.625698
0.240284 69.655807 -1.537724
0.16025899 69.773361 -1.569214
0.143701 69.60582 -1.5543979
0.16461501 69.66304 -1.55442
0.209682 69.776657 -1.55488
0.084569998 69.520767 -1.555939
0.28491199 69.779922 -1.539199
0.198461 69.530472 -1.536638
0.111898 69.645737 -1.568372
0.098241001 69.577072 -1.569083
0.19297899 69.718155 -1.5552731
0.215791 69.594589 -1.536799
0.26826099 69.715622 -1.539031
0.230955 70.005081 -1.619063
0.082000002 70.084457 -1.664767
0.29234099 69.982925 -1.619573
0.30636001 69.912857 -1.538394
0.29390499 69.847122 -1.538605
0.246915 70.032578 -1.570171
0.097625002 70.006454 -1.564067
0.124517 70.056107 -1.544796
0.113704 69.846207 -1.543022
0.128282 69.915695 -1.54161
0.16731399 69.903397 -1.601385
0.17484599 69.84877 -1.594474
0.232931 69.896683 -1.600579
0.226179 69.83522 -1.554487
0.146219 69.983505 -1.540562
0.25781599 69.889633 -1.555755
0.18205599 70.043167 -1.541333
0.093776003 70.225388 -1.65187
0.25794899 70.304031 -1.634744
0.100547 70.304337 -1.639956
0.085951999 70.275467 -1.652914
0.17815 70.302383 -1.637532
0.278005 70.134048 -1.624135
0.14377899 70.115707 -1.544626
0.16662601 70.174179 -1.544861
0.153431 70.37059 -1.597393
0.30150199 70.292801 -1.542243
0.199514 70.111099 -1.540287
0.22036099 70.177475 -1.5396039
0.20066801 70.229141 -1.5463099
0.20792 70.292526 -1.544925
0.231714 70.381699 -1.594419
0.094635002 70.389786 -1.596908
0.262844 70.234238 -1.541105
0.24158099 70.347763 -1.5463721
0.18951599 70.492111 -1.638115
0.207298 70.583633 -1.717911
0.168293 70.563309 -1.633765
0.159109 70.477646 -1.650627
0.178718 70.419022 -1.6330251
0.107994 70.672897 -1.619722
0.204353 70.633469 -1.654009
0.194547 70.696762 -1.615015
0.277845 70.618362 -1.566449
0.31510299 70.404648 -1.5547889
0.25094199 70.560104 -1.565164
0.226806 70.433975 -1.565804
0.27404401 70.468979 -1.545625
0.25982299 70.407761 -1.546201
0.12207 70.587936 -1.57021
0.093589 70.524521 -1.570457
0.28555799 70.682693 -1.56573
0.146686 70.653061 -1.569597
0.088550001 70.98555 -1.660193
0.15516999 70.789017 -1.836164
0.15097199 70.85051 -1.646916
0.186168 70.933853 -1.6108871
0.19816899 70.881363 -1.636181
0.24271899 70.774002 -1.821118
0.31055999 70.940659 -1.640607
0.263298 70.929581 -1.608449
0.12331 70.808609 -1.575202
0.100673 70.751694 -1.574808
0.147958 70.993729 -1.5645061
0.209833 70.777145 -1.5698349
0.315851 70.739975 -1.567418
0.104578 70.865097 -1.5651571
0.17471901 70.71666 -1.56935
0.130073 70.927902 -1.565207
0.24514 71.027328 -1.62736
0.24078301 71.160721 -1.673134
0.10699 71.209 -1.622161
0.126417 71.07518 -1.62861
0.28950301 71.091354 -1.663345
0.15910099 71.267838 -1.628949
0.32056001 71.161301 -1.6239049
0.194124 71.12114 -1.564234
0.165599 71.059586 -1.5638061
0.182182 71.217728 -1.5689501
0.212734 71.273605 -1.570415
0.31521001 71.034531 -1.568478
0.22986799 71.179916 -1.565414
0.270998 71.30925 -1.564769
0.24311 71.247391 -1.564339
0.11405 71.275589 -1.587644
0.13661399 71.51564 -1.627758
0.2563 71.371414 -1.625851
0.247051 71.509171 -1.624513
0.15602501 71.568497 -1.617067
0.255804 71.588852 -1.611468
0.183792 71.416458 -1.650205
0.172693 71.366837 -1.629532
0.19202 71.479324 -1.627526
0.30214101 71.506058 -1.572938
0.32400101 71.564438 -1.573568
0.219932 71.335403 -1.569381
0.23077001 71.396225 -1.568763
0.192781 71.57402 -1.59372
0.164039 71.511826 -1.593588
0.27234599 71.449661 -1.571476
0.29121399 71.374008 -1.564448
0.098531 71.390732 -1.592569
0.12768701 71.452682 -1.592701
0.333597 71.430527 -1.566383
0.187336 71.774734 -1.7498519
0.18691599 71.700394 -1.65128
0.107637 71.84465 -1.618999
0.222278 71.726303 -1.655664
0.26716799 71.831558 -1.613723
0.191396 71.798325 -1.645838
0.200657 71.852829 -1.614599
0.31492999 71.702774 -1.6459889
0.303455 71.647934 -1.688822
0.159851 71.826584 -1.597551
0.268224 71.691635 -1.595867
0.17102 71.885605 -1.597091
0.228738 71.633438 -1.594605
0.13676199 71.769852 -1.596711
0.101783 71.715561 -1.594569
0.296352 71.754227 -1.595998
0.335457 71.812729 -1.597259
0.28009799 71.949814 -1.6309789
0.25384301 72.03331 -1.655775
0.107992 72.156357 -1.62414
0.090244003 72.205795 -1.627664
0.142023 72.215775 -1.6250629
0.32582799 72.126846 -1.649164
0.31698599 72.034409 -1.653015
0.26850301 72.112656 -1.6013
0.31610101 72.226974 -1.6033961
0.193464 72.132217 -1.596125
0.165746 72.075668 -1.59462
0.18589699 71.943954 -1.597062
0.217096 72.189713 -1.597203
0.28259599 72.171402 -1.601267
0.126159 72.021683 -1.591832
0.230709 72.058121 -1.598735
0.216226 71.999557 -1.598765
0.121421 71.960526 -1.592889
0.108667 72.532883 -1.782222
0.24295799 72.395035 -1.62783
0.129316 72.450912 -1.744895
0.133407 72.40065 -1.664633
0.242496 72.44191 -1.633128
0.218181 72.240585 -1.650931
0.21702699 72.332504 -1.627685
0.172107 72.276688 -1.625597
0.334463 72.488449 -1.6598769
0.19606 72.41008 -1.718204
0.146167 72.505936 -1.665451
0.26445401 72.348923 -1.748677
0.27353799 72.503769 -1.633822
0.24834201 72.245804 -1.599134
0.27940699 72.302078 -1.601065
0.159954 72.417099 -1.574864
0.202804 72.472855 -1.57725
0.23408701 72.532394 -1.578475
0.33372501 72.285294 -1.603794
0.30246699 72.35997 -1.6021399
0.15480401 72.349289 -1.576352
0.115354 72.292618 -1.5743541
0.30577201 72.421585 -1.6010799
0.153053 72.555069 -1.665742
0.232502 72.792557 -1.679446
0.19010299 72.623856 -1.672959
0.115007 72.832291 -1.752516
0.28766999 72.749832 -1.7455601
0.31221899 72.790237 -1.7469341
0.110281 72.755783 -1.649857
0.26684201 72.836685 -1.737848
0.097098999 72.705826 -1.751972
0.298448 72.561966 -1.6591851
0.082107 72.69252 -1.649611
0.213293 72.735794 -1.6766371
0.186197 72.634445 -1.734099
0.145063 72.70668 -1.752381
0.149437 72.815018 -1.65126
0.105823 72.576187 -1.682942
0.20575701 72.680069 -1.675283
0.29606199 72.651932 -1.580927
0.33056599 72.71077 -1.582541
0.280386 72.587387 -1.581251
0.096396998 72.943771 -1.649735
0.114792 72.884201 -1.614553
0.124031 73.004776 -1.650292
0.26487899 73.087265 -1.615455
0.28636101 73.14949 -1.615965
0.227869 73.029495 -1.613353
0.204734 72.942184 -1.651752
0.195169 72.903641 -1.780126
0.243293 73.001877 -1.653154
0.27425501 72.906937 -1.68555
0.231729 72.847763 -1.679829
0.313133 72.853775 -1.733274
0.33862099 73.11525 -1.6578881
0.14134599 73.13002 -1.7505651
0.159059 73.063553 -1.651648
0.179205 72.975204 -1.610057
0.177192 72.878555 -1.6515059
0.19389901 73.122513 -1.653003
0.32691199 73.040695 -1.781361
0.32021701 73.094955 -1.751826
0.255384 73.24324 -1.654914
0.17901801 73.384903 -1.888518
0.15120301 73.309158 -1.80779
0.18237799 73.258469 -1.810778
0.32935101 73.453568 -1.743494
0.33484599 73.380295 -1.6691231
0.30491799 73.298203 -1.657865
0.114315 73.191086 -1.746714
0.121618 73.364365 -1.7502919
0.311472 73.21077 -1.616873
0.245294 73.303574 -1.835197
0.20774999 73.35585 -1.753536
0.19286899 73.281815 -1.870832
0.232362 73.180527 -1.654757
0.241192 73.41713 -1.7546231
0.12491 73.432297 -1.7483619
0.346645 73.355667 -1.6600159
0.26688501 73.481125 -1.7548929
0.28763399 73.567276 -1.757363
0.273426 73.645218 -1.76674
0.194126 73.513321 -1.863009
0.216787 73.601974 -1.868153
0.215847 73.645493 -1.7955559
0.28436801 73.736343 -1.741268
0.303693 73.541428 -1.7563879
0.32580501 73.607712 -1.750237
0.33216801 73.698257 -1.741937
0.175598 73.459976 -1.744149
0.16035201 73.538467 -1.738086
0.123232 73.731094 -1.790429
0.116388 73.647049 -1.751354
0.115122 73.59111 -1.735558
0.120296 73.502365 -1.745587
0.31438199 73.754898 -1.750252
0.15098 73.706589 -1.752957
-2.3617041 73.830673 -1.70237
-2.1996231 73.949722 -1.763495
-2.189631 73.861801 -1.759325
-2.20257 73.781235 -1.758136
-2.286896 73.780746 -1.787915
-2.1257269 74.009048 -1.796084
-2.1003189 73.830582 -1.67281
-2.2354419 73.79454 -1.757972
-2.2153111 73.894363 -1.756492
-2.2592089 73.989792 -1.761017
-2.222832 74.06514 -1.661447
-2.301091 73.85759 -1.7513959
-2.142916 73.824478 -1.761338
-2.1917789 74.007004 -1.6641949
-2.1663079 74.069443 -1.760856
-2.0649531 73.905777 -1.723864
-2.0801761 74.003891 -1.721401
-2.1196771 73.898483 -1.668617
-2.1542721 73.953934 -1.666226
-2.275465 73.946823 -1.753384
-2.0590961 73.780319 -1.6744829
-2.0595779 73.856583 -1.724818
-2.2737739 74.031693 -1.827456
-2.3192661 74.063034 -1.753114
-2.330544 74.006058 -1.749001
-2.3593409 73.880234 -1.7020741
-2.3525491 73.815567 -1.774019
-2.2176459 74.35878 -1.761657
-2.248724 74.296188 -1.686613
-2.225703 74.252151 -1.689916
-2.3510361 74.14122 -1.829564
-2.089783 74.372147 -1.721593
-2.183264 74.366226 -1.757951
-2.317786 74.237564 -1.6535701
-2.3447731 74.298416 -1.650471
-2.2999749 74.169388 -1.657746
-2.283947 74.250412 -1.812781
-2.308075 74.370255 -1.68258
-2.1970119 74.213882 -1.692191
-2.1049769 74.299484 -1.768822
-2.079607 74.248642 -1.72082
-2.0850201 74.147324 -1.751489
-2.098067 74.077682 -1.700672
-2.253458 74.196915 -1.82999
-2.2473969 74.128281 -1.6579829
-2.1368301 74.345871 -1.713075
-2.133877 74.296829 -1.7134711
-2.12714 74.248001 -1.714421
-2.1166179 74.199326 -1.715927
-2.1391661 74.137589 -1.6967421
-1.879414 74.046738 -1.69971
-1.874947 73.955368 -1.844708
-1.907391 73.900253 -1.778612
-1.83586 73.999771 -1.700984
-1.901669 73.83577 -1.714962
-1.790381 73.839005 -1.6581579
-1.804448 73.942856 -1.703747
-1.786639 74.038254 -1.665519
-1.994221 74.046463 -1.7583719
-1.958861 74.024307 -1.758749
-1.9921041 73.798233 -1.734751
-2.0500989 73.922318 -1.839663
-2.016278 73.991837 -1.704816
-1.986536 73.954178 -1.707093
-1.841872 73.790054 -1.6554689
-1.954317 73.818253 -1.7932
-1.8452131 73.899002 -1.7675591
-1.976441 74.363449 -1.651194
-2.0431099 74.24736 -1.769387
-2.0581131 74.099075 -1.724176
-1.934954 74.166031 -1.693446
-1.765723 74.330948 -1.7436301
-1.807215 74.23616 -1.737854
-1.8071671 74.186569 -1.7367719
-1.764551 74.09407 -1.740804
-1.917111 74.252213 -1.65633
-1.956187 74.300278 -1.654878
-1.9957761 74.280594 -1.687932
-1.971714 74.218307 -1.69143
-2.0289819 74.335526 -1.685549
-1.823401 74.088425 -1.663685
-1.859972 74.138718 -1.661853
-1.861025 74.236221 -1.7348551
-1.904202 74.108841 -1.696205
-1.896363 74.189133 -1.660023
-1.877974 74.279922 -1.733664
-1.9067121 74.375076 -1.731007
-2.347302 74.397568 -1.682359
-2.1399541 74.394913 -1.712679
-2.1551039 74.4431 -1.710621
-2.0588379 74.393021 -1.682796
-2.097924 74.443253 -1.681154
-2.212101 74.44072 -1.748469
-2.307368 74.432205 -1.7514941
-2.1780591 74.427475 -1.747918
-1.917403 74.423111 -1.730239
-2.0088899 74.416702 -1.649003
-1.79743 74.380325 -1.741661
-1.796187 74.511368 -1.853932
-1.859858 74.425797 -1.734858
-1.552533 74.025436 -1.790596
-1.547367 73.979965 -1.758803
-1.52298 73.923294 -1.7620699
-1.707768 74.049667 -1.7451251
-1.69331 73.955826 -1.834072
-1.690405 73.875534 -1.672909
-1.670987 73.810196 -1.6770051
-1.450125 73.992386 -1.772675
-1.447989 73.904037 -1.76399
-1.548228 73.868393 -1.754869
-1.481331 73.798965 -1.758347
-1.586369 74.023422 -1.7576391
-1.584132 73.900314 -1.753651
-1.593439 73.829147 -1.759554
-1.642241 73.979202 -1.748607
-1.612852 73.874496 -1.758164
-1.744112 73.799484 -1.74696
-1.74268 73.889786 -1.6604331
-1.739125 73.959335 -1.65776
-1.717482 74.021194 -1.657149
-1.483626 73.880051 -1.763243
-1.62348 73.824814 -1.872265
-1.462166 73.951553 -1.763294
-1.495844 73.994797 -1.759789
-1.506464 74.042984 -1.759655
-1.498286 74.148941 -1.721526
-1.4852279 74.19487 -1.846314
-1.470372 74.257767 -1.683084
-1.7398649 74.276474 -1.746439
-1.745144 74.368393 -1.777546
-1.455508 74.351486 -1.752413
-1.7462471 74.157578 -1.849093
-1.714451 74.090683 -1.654476
-1.449963 74.155258 -1.742316
-1.529343 74.368759 -1.660484
-1.562472 74.181961 -1.755883
-1.5814379 74.248428 -1.660472
-1.568228 74.313675 -1.659036
-1.558457 74.276535 -1.7877409
-1.622897 74.370346 -1.710861
-1.653487 74.251877 -1.810079
-1.6170141 74.192123 -1.659436
-1.500254 74.311935 -1.6804971
-1.652771 74.136002 -1.658399
-1.616274 74.074936 -1.755221
-1.452046 74.10585 -1.722369
-1.528994 74.204788 -1.718762
-1.569598 74.127426 -1.763458
-1.547507 74.134842 -1.756579
-1.706524 74.345352 -1.780453
-1.706084 74.117691 -1.781747
-1.681465 74.172928 -1.751238
-1.7047499 74.229874 -1.748
-1.299527 74.024185 -1.765744
-1.277554 73.942184 -1.69751
-1.250054 73.783493 -1.73744
-1.261797 73.877548 -1.7676671
-1.335358 73.8759 -1.7345999
-1.425562 73.95195 -1.776266
-1.358523 73.772293 -1.7996171
-1.297308 73.825729 -1.7366
-1.423991 74.047653 -1.72552
-1.35199 73.94426 -1.7299
-1.311705 73.99324 -1.6952929
-1.1768841 73.78688 -1.704566
-1.385075 73.850082 -1.862691
-1.392651 73.99205 -1.7282881
-1.324566 74.062637 -1.690364
-1.187474 73.921799 -1.819432
-1.190789 73.856186 -1.699618
-1.240218 73.893845 -1.6993411
-1.2493581 74.194107 -1.7559921
-1.363848 74.216629 -1.761523
